ply
format ascii 1.0
element vertex 1141
property float x
property float y
property float z
property uchar red
property uchar green
property uchar blue
end_header
0.147578 0.117349 0.175881 255   0   0
0.147146 0.112751 0.175091 255   0   0
0.147023 0.107751 0.174427 255   0   0
0.146769 0.102469 0.173792 255   0   0
 0.146458 0.0970717  0.173149 255   0   0
 0.146215 0.0916263  0.172488 255   0   0
  0.14584 0.0860877  0.171866 255   0   0
 0.145579 0.0802891  0.171234 255   0   0
  0.18987 0.0526267  0.152676 255   0   0
 0.133591 0.0598813  0.177993 255   0   0
 0.145321 0.0742385  0.170532 255   0   0
 0.144952 0.0681783  0.169713 255   0   0
  0.14456 0.0623481  0.168929 255   0   0
0.144313 0.056589 0.168112 255   0   0
 0.144085 0.0508545  0.167298 255   0   0
 0.143937 0.0453764  0.166457 255   0   0
 0.143817 0.0400405  0.165595 255   0   0
 0.143765 0.0348942  0.164622 255   0   0
 0.143737 0.0301697   0.16359 255   0   0
 0.143729 0.0258606   0.16254 255   0   0
 0.193339 0.0532681  0.152119 255   0   0
 0.143694 0.0216192  0.161565 255   0   0
 0.143684 0.0175166  0.160616 255   0   0
  0.14352 0.0135441  0.159833 255   0   0
  0.143377 0.00966157   0.158989 255   0   0
 0.143297 0.0060086   0.15812 255   0   0
 0.127926 0.0125199  0.167613 255   0   0
  0.127624 0.00934252   0.167402 255   0   0
  0.127318 0.00624944   0.167152 255   0   0
  0.127057 0.00346234   0.166906 255   0   0
   0.126774 0.000734478     0.16659 255   0   0
   0.126625 -0.00180129    0.166339 255   0   0
    0.12648 -0.00425065    0.166093 255   0   0
   0.126372 -0.00651767    0.165844 255   0   0
   0.126312 -0.00856151    0.165658 255   0   0
  0.126199 -0.0103962   0.165455 255   0   0
 0.220949 0.0598142  0.148197 255   0   0
  0.126068 -0.0120331   0.165299 255   0   0
 0.125987 -0.013412  0.165121 255   0   0
  0.125993 -0.0143301   0.165048 255   0   0
  0.125897 -0.0151052   0.164879 255   0   0
  0.125832 -0.0155035   0.164762 255   0   0
  0.125868 -0.0155759    0.16471 255   0   0
   0.12577 -0.0154744   0.164643 255   0   0
  0.125655 -0.0150877   0.164623 255   0   0
  0.125606 -0.0145686   0.164463 255   0   0
  0.125442 -0.0137337   0.164344 255   0   0
 0.219127 0.0610134  0.148818 255   0   0
  0.125265 -0.0126473   0.164241 255   0   0
   0.12515 -0.0115604   0.164136 255   0   0
  0.125021 -0.0103814   0.164069 255   0   0
   0.124975 -0.00911219    0.164111 255   0   0
   0.124935 -0.00794181    0.164116 255   0   0
   0.124906 -0.00657603    0.164225 255   0   0
   0.124883 -0.00507074    0.164338 255   0   0
   0.124884 -0.00353272    0.164454 255   0   0
  0.124921 -0.0020834   0.164661 255   0   0
    0.124936 -0.000569301     0.164896 255   0   0
 0.217145 0.0615847   0.14938 255   0   0
 0.133301 0.0595761  0.177745 255   0   0
   0.125037 0.000966923    0.165066 255   0   0
  0.125212 0.00280415   0.165228 255   0   0
  0.125367 0.00472377   0.165323 255   0   0
  0.125457 0.00664203   0.165398 255   0   0
  0.125735 0.00865362   0.165601 255   0   0
 0.125851 0.0105727  0.165745 255   0   0
0.126108 0.012786 0.165875 255   0   0
0.126362 0.015176 0.165978 255   0   0
 0.126787 0.0176364  0.166062 255   0   0
  0.12718 0.0199623  0.166105 255   0   0
 0.214995 0.0612607   0.14992 255   0   0
 0.127458 0.0225056  0.166185 255   0   0
0.127828 0.025231 0.166196 255   0   0
 0.128164 0.0281535  0.166128 255   0   0
  0.12865 0.0313147  0.166052 255   0   0
 0.129083 0.0345369  0.165952 255   0   0
 0.129585 0.0378294  0.165948 255   0   0
 0.130022 0.0412367  0.165861 255   0   0
  0.13058 0.0449934  0.165665 255   0   0
 0.131131 0.0490433   0.16539 255   0   0
 0.131728 0.0532279  0.165145 255   0   0
 0.212754 0.0614535  0.150409 255   0   0
 0.132372 0.0574852  0.164991 255   0   0
 0.132996 0.0617941  0.164819 255   0   0
 0.133657 0.0663577  0.164489 255   0   0
 0.134415 0.0712241  0.164104 255   0   0
 0.135036 0.0761052   0.16385 255   0   0
 0.135685 0.0810449  0.163825 255   0   0
 0.136295 0.0857384  0.163968 255   0   0
 0.137051 0.0902989  0.164046 255   0   0
0.137787 0.095122 0.164129 255   0   0
0.138557 0.099972 0.164304 255   0   0
 0.210044 0.0621624  0.151413 255   0   0
0.139317 0.104757 0.164557 255   0   0
0.140014 0.109403  0.16487 255   0   0
0.140688 0.113941 0.165192 255   0   0
0.141568 0.118524 0.165324 255   0   0
0.142209 0.123229 0.165434 255   0   0
0.142803  0.12788 0.165605 255   0   0
0.143416 0.132388 0.165788 255   0   0
0.143979  0.13659 0.166022 255   0   0
0.144516 0.140561 0.166145 255   0   0
0.144941 0.144445 0.166113 255   0   0
 0.208059 0.0618342  0.151853 255   0   0
 0.14512 0.148206 0.166057 255   0   0
0.145246  0.15169 0.166042 255   0   0
0.145251 0.154637 0.166222 255   0   0
0.145231  0.15723 0.166516 255   0   0
0.145339  0.15914 0.166922 255   0   0
0.145318  0.16071  0.16729 255   0   0
0.145171 0.162178  0.16755 255   0   0
0.144851 0.163277 0.167935 255   0   0
0.144594  0.16414 0.168275 255   0   0
0.144202 0.164757 0.168713 255   0   0
 0.205437 0.0622812  0.152725 255   0   0
0.143756 0.165045 0.169264 255   0   0
0.143365 0.164964 0.169787 255   0   0
0.142851 0.164703 0.170209 255   0   0
 0.14235 0.164279 0.170438 255   0   0
0.141846 0.163955 0.170392 255   0   0
0.141187 0.163429 0.170411 255   0   0
0.140706 0.162523 0.170414 255   0   0
0.140149 0.161327 0.170446 255   0   0
0.139603 0.159809  0.17047 255   0   0
0.139163 0.158262 0.170342 255   0   0
 0.203051 0.0615772  0.153286 255   0   0
0.138607 0.156378 0.170319 255   0   0
0.138145 0.154347 0.170347 255   0   0
0.137917 0.152037 0.170361 255   0   0
0.137757  0.14978  0.17035 255   0   0
0.137724 0.147539 0.170398 255   0   0
0.137654  0.14524 0.170397 255   0   0
0.137594 0.142838 0.170362 255   0   0
0.137586 0.140211  0.17038 255   0   0
0.137574 0.137422 0.170406 255   0   0
0.137626 0.134594 0.170356 255   0   0
 0.199732 0.0628162  0.154395 255   0   0
0.137673 0.131646  0.17034 255   0   0
0.137715  0.12857 0.170411 255   0   0
0.137929 0.125332 0.170499 255   0   0
0.138119 0.122043 0.170549 255   0   0
0.138287 0.118404 0.170705 255   0   0
0.138484 0.114669 0.170784 255   0   0
0.138646 0.110733  0.17083 255   0   0
0.138754 0.106751 0.170835 255   0   0
0.138868 0.102517 0.170813 255   0   0
0.138959  0.09821 0.170766 255   0   0
 0.196874 0.0627866  0.155062 255   0   0
 0.139023 0.0935017  0.170724 255   0   0
0.139027 0.088587 0.170683 255   0   0
 0.138994 0.0833778  0.170662 255   0   0
  0.13902 0.0779418  0.170572 255   0   0
 0.139159 0.0722561  0.170373 255   0   0
 0.139283 0.0663802  0.170057 255   0   0
 0.139363 0.0606117  0.169689 255   0   0
 0.139551 0.0546065  0.169215 255   0   0
 0.116969 0.0181144  0.156148 255   0   0
 0.177008 0.0625154  0.162654 255   0   0
  0.11339 0.0211322  0.156757 255   0   0
 0.109636 0.0239557  0.157305 255   0   0
 0.105821 0.0266159  0.157874 255   0   0
0.101867  0.02915 0.158489 255   0   0
 0.097949 0.0315311  0.159191 255   0   0
0.0940532 0.0336737  0.159985 255   0   0
0.0901224 0.0355545  0.160838 255   0   0
0.0862127 0.0372767  0.161756 255   0   0
0.0822831 0.0387865   0.16268 255   0   0
0.0783791 0.0400143  0.163659 255   0   0
 0.174648 0.0621996  0.164039 255   0   0
0.0745005 0.0409766   0.16469 255   0   0
0.0706583 0.0416025   0.16574 255   0   0
0.0667744  0.042057  0.166751 255   0   0
0.0630298 0.0423382  0.167802 255   0   0
0.0593794 0.0425424  0.168789 255   0   0
0.0558656 0.0426409  0.169762 255   0   0
0.0523585 0.0425301  0.170702 255   0   0
0.0489797 0.0423334  0.171631 255   0   0
 0.045579 0.0421035  0.172508 255   0   0
0.0423172 0.0418525  0.173408 255   0   0
 0.172266 0.0617896  0.165332 255   0   0
 0.039132 0.0416484  0.174234 255   0   0
0.0360061 0.0413851  0.174953 255   0   0
0.0330204 0.0411454  0.175581 255   0   0
0.0300693 0.0409883  0.176085 255   0   0
0.0273884 0.0409763  0.176647 255   0   0
0.0248669 0.0409989  0.177118 255   0   0
0.0095279 0.0399487  0.182602 255   0   0
0.0104574 0.0398551  0.182945 255   0   0
0.0116806 0.0395574  0.183167 255   0   0
0.0131123 0.0391447  0.183347 255   0   0
0.0146339 0.0388588  0.183405 255   0   0
0.0157783 0.0370405  0.182793 255   0   0
 0.018566 0.0382295  0.183534 255   0   0
0.0208659 0.0379984  0.183554 255   0   0
0.0234304 0.0378001  0.183622 255   0   0
0.0261708 0.0377148  0.183682 255   0   0
 0.165067 0.0613444  0.168374 255   0   0
0.133192 0.059682 0.177504 255   0   0
 0.125668 0.0833593  0.161447 255   0   0
 0.167338 0.0614001  0.167347 255   0   0
0.00884431  0.0400659   0.182351 255   0   0
0.00794233  0.0387986   0.181533 255   0   0
0.00773965  0.0387918   0.181245 255   0   0
0.0085216 0.0401646   0.18168 255   0   0
0.00896683  0.0403279   0.181425 255   0   0
0.00968964  0.0404229   0.181144 255   0   0
0.00941059  0.0377798   0.179428 255   0   0
0.0117442 0.0406558  0.180297 255   0   0
0.0130776 0.0406848  0.179817 255   0   0
0.0145895 0.0408373  0.179354 255   0   0
 0.169801 0.0614747  0.166389 255   0   0
0.0162971  0.040883  0.178896 255   0   0
0.0181405 0.0408795  0.178391 255   0   0
0.0202221 0.0408798  0.177926 255   0   0
0.0224577 0.0409691  0.177512 255   0   0
 0.120364 0.0149258  0.155557 255   0   0
 0.123803 0.0116891  0.155065 255   0   0
  0.127187 0.00843517   0.154727 255   0   0
  0.130432 0.00504684    0.15444 255   0   0
  0.133598 0.00162187   0.154133 255   0   0
   0.136525 -0.00177288    0.153873 255   0   0
   0.139287 -0.00526187    0.153561 255   0   0
   0.141919 -0.00867582    0.153412 255   0   0
  0.144131 -0.0120604    0.15342 255   0   0
 0.179518 0.0628143  0.161212 255   0   0
 0.146845 -0.015732  0.153212 255   0   0
  0.147446 -0.0187874   0.153871 255   0   0
  0.151165 -0.0229182   0.153004 255   0   0
   0.15366 -0.0271634   0.152399 255   0   0
  0.15433 -0.030388  0.152896 255   0   0
  0.156602 -0.0341175   0.152191 255   0   0
  0.157724 -0.0370188   0.152249 255   0   0
  0.158993 -0.0405225   0.152659 255   0   0
 0.160895 -0.043688  0.152206 255   0   0
  0.159553 -0.0460869    0.15384 255   0   0
0.182136 0.062804 0.159851 255   0   0
  0.162152 -0.0494794   0.152687 255   0   0
  0.162552 -0.0536344   0.152032 255   0   0
  0.160609 -0.0562483   0.154462 255   0   0
  0.160733 -0.0582277   0.155243 255   0   0
   0.16108 -0.0611012    0.15523 255   0   0
  0.162769 -0.0627465   0.155219 255   0   0
  0.161986 -0.0645733   0.155571 255   0   0
 0.160737 -0.067387  0.156177 255   0   0
  0.161542 -0.0686767   0.156092 255   0   0
  0.160333 -0.0692297   0.157413 255   0   0
 0.184797 0.0628438  0.158715 255   0   0
  0.158975 -0.0690608   0.157774 255   0   0
  0.158788 -0.0698244   0.159373 255   0   0
  0.156981 -0.0701016   0.160303 255   0   0
  0.157481 -0.0700217   0.159555 255   0   0
  0.157108 -0.0685433   0.160824 255   0   0
 0.156433 -0.066767  0.161502 255   0   0
  0.154952 -0.0673029   0.161114 255   0   0
  0.153805 -0.0636481   0.162887 255   0   0
  0.153834 -0.0622838   0.162159 255   0   0
  0.152686 -0.0597021   0.162011 255   0   0
 0.187594 0.0630296  0.157649 255   0   0
   0.15286 -0.0552639    0.16357 255   0   0
  0.153485 -0.0527572   0.162374 255   0   0
  0.153239 -0.0502972   0.161541 255   0   0
  0.150625 -0.0460628   0.163033 255   0   0
  0.151074 -0.0418493   0.163026 255   0   0
  0.150004 -0.0378108   0.163243 255   0   0
  0.149505 -0.0335325   0.163554 255   0   0
  0.148487 -0.0290321   0.163645 255   0   0
  0.148467 -0.0241978    0.16384 255   0   0
  0.147712 -0.0191785   0.164043 255   0   0
 0.133286 0.0596433  0.177648 255   0   0
 0.190549 0.0630252  0.156673 255   0   0
   0.14688 -0.0139911   0.164189 255   0   0
  0.146079 -0.0088501   0.164304 255   0   0
   0.145232 -0.00353767    0.164502 255   0   0
  0.144456 0.00187465   0.164804 255   0   0
   0.14381 0.00739049   0.165242 255   0   0
  0.14328 0.0130287   0.16574 255   0   0
 0.142624 0.0186957  0.166235 255   0   0
 0.141931 0.0243915  0.166794 255   0   0
 0.141202 0.0302687  0.167335 255   0   0
 0.140594 0.0362683  0.167753 255   0   0
 0.193707 0.0629381  0.155791 255   0   0
 0.140056 0.0424043  0.168253 255   0   0
0.139781 0.048514  0.16872 255   0   0
 0.222547 0.0607122  0.147707 255   0   0
 0.128244 0.0158346  0.167867 255   0   0
 0.128601 0.0192085  0.168088 255   0   0
  0.12894 0.0227278  0.168424 255   0   0
  0.12953 0.0264815  0.168744 255   0   0
 0.129999 0.0304506  0.169107 255   0   0
 0.130555 0.0344811  0.169447 255   0   0
 0.131136 0.0386243  0.169756 255   0   0
 0.131602 0.0428182  0.170061 255   0   0
 0.132255 0.0470425  0.170315 255   0   0
 0.132816 0.0513012  0.170623 255   0   0
 0.224026 0.0617829  0.148254 255   0   0
 0.133433 0.0555919  0.170895 255   0   0
 0.134011 0.0598287  0.171101 255   0   0
 0.134615 0.0640968  0.171243 255   0   0
 0.135219 0.0683995  0.171406 255   0   0
 0.135826 0.0725359  0.171578 255   0   0
  0.13663 0.0766138  0.171857 255   0   0
 0.137399 0.0804866    0.1723 255   0   0
 0.138186 0.0843347  0.172828 255   0   0
  0.13884 0.0881595  0.173337 255   0   0
 0.139524 0.0919345  0.173786 255   0   0
 0.225992 0.0596853   0.14712 255   0   0
 0.140136 0.0956556  0.174307 255   0   0
 0.140818 0.0995069  0.174827 255   0   0
0.141335 0.103532 0.175367 255   0   0
 0.14188 0.107712 0.175793 255   0   0
0.142412 0.111792 0.176194 255   0   0
0.142867 0.115879 0.176578 255   0   0
0.143302 0.119857 0.177034 255   0   0
0.143573  0.12393 0.177624 255   0   0
0.143958 0.127923 0.178228 255   0   0
0.144248 0.132185 0.178828 255   0   0
0.226976  0.05918 0.146986 255   0   0
0.144618 0.136188  0.17961 255   0   0
0.145009 0.140596  0.18029 255   0   0
0.145406 0.145099 0.180927 255   0   0
0.145841 0.149736 0.181504 255   0   0
0.146269 0.154538 0.181966 255   0   0
0.146754 0.159215 0.182412 255   0   0
0.147464  0.16368  0.18292 255   0   0
0.147929 0.168143 0.183514 255   0   0
0.148446  0.17265 0.183943 255   0   0
 0.14879 0.176939 0.184246 255   0   0
 0.228878 0.0599992  0.146479 255   0   0
0.149092 0.180974  0.18452 255   0   0
0.148933 0.184827 0.184595 255   0   0
0.149326 0.188082 0.185029 255   0   0
0.149507 0.191159 0.185172 255   0   0
0.149553 0.193715 0.185372 255   0   0
0.149527  0.19579  0.18555 255   0   0
0.149648 0.197398 0.185665 255   0   0
0.149888 0.198359 0.185595 255   0   0
0.150006 0.198684 0.185354 255   0   0
0.150189 0.198282  0.18517 255   0   0
 0.229075 0.0591581  0.146743 255   0   0
0.150298 0.197244 0.184981 255   0   0
0.150479 0.195572 0.184886 255   0   0
0.150662 0.193641  0.18455 255   0   0
0.150715 0.191258 0.184171 255   0   0
0.150817 0.188385 0.183774 255   0   0
0.150826 0.185323 0.183216 255   0   0
0.150955  0.18204  0.18252 255   0   0
0.150809 0.178827 0.181685 255   0   0
0.150894 0.175268 0.180786 255   0   0
0.150893   0.1714 0.179979 255   0   0
 0.230043 0.0594554  0.146676 255   0   0
0.150768 0.167411 0.179203 255   0   0
0.150598 0.163359  0.17849 255   0   0
0.150283 0.159521 0.177746 255   0   0
0.150006 0.155683 0.176895 255   0   0
0.149522 0.151907 0.176066 255   0   0
 0.14925 0.147712 0.175368 255   0   0
0.148821 0.143398 0.174873 255   0   0
 0.14842  0.13934 0.174293 255   0   0
0.147998 0.135216 0.173678 255   0   0
0.147556  0.13103 0.173137 255   0   0
 0.133373 0.0596522   0.17787 255   0   0
 0.230811 0.0609628  0.146919 255   0   0
0.147018 0.126973 0.172586 255   0   0
0.146561 0.123018 0.171976 255   0   0
0.146032 0.118748  0.17138 255   0   0
0.145475 0.114595 0.170786 255   0   0
 0.14491 0.110467 0.170124 255   0   0
0.144335  0.10638 0.169458 255   0   0
0.143857 0.102213 0.168814 255   0   0
 0.143415 0.0979524  0.168175 255   0   0
 0.143009 0.0934759  0.167609 255   0   0
 0.142667 0.0889906    0.1671 255   0   0
 0.231044 0.0604085  0.147037 255   0   0
 0.142366 0.0843787  0.166624 255   0   0
 0.142082 0.0796533  0.166211 255   0   0
 0.141751 0.0747122  0.165895 255   0   0
 0.141371 0.0697666  0.165616 255   0   0
 0.140935 0.0650313  0.165386 255   0   0
 0.140569 0.0602868  0.165168 255   0   0
  0.14022 0.0555075   0.16505 255   0   0
 0.139931 0.0506911  0.164939 255   0   0
 0.139582 0.0460961  0.164963 255   0   0
 0.139206 0.0416688  0.164854 255   0   0
 0.230614 0.0595398  0.147389 255   0   0
 0.138793 0.0375196  0.164588 255   0   0
 0.138517 0.0337197  0.164313 255   0   0
 0.138307 0.0297075  0.164176 255   0   0
 0.138142 0.0256218  0.164233 255   0   0
0.138004 0.021625  0.16427 255   0   0
   0.1378 0.0179306   0.16424 255   0   0
 0.137539 0.0148103  0.164048 255   0   0
 0.137376 0.0120656  0.163804 255   0   0
  0.137264 0.00919608   0.163627 255   0   0
  0.137289 0.00624555   0.163614 255   0   0
   0.2306 0.0601195  0.147619 255   0   0
  0.137254 0.00341263   0.163505 255   0   0
  0.137009 0.00103554   0.163353 255   0   0
    0.136863 -0.000630706     0.162966 255   0   0
   0.136504 -0.00168154    0.162493 255   0   0
   0.136321 -0.00256369    0.162049 255   0   0
   0.136311 -0.00379128    0.161795 255   0   0
   0.136383 -0.00521498    0.161715 255   0   0
   0.136254 -0.00659919    0.161712 255   0   0
   0.136219 -0.00766706    0.161721 255   0   0
   0.136117 -0.00843509    0.161745 255   0   0
 0.230565 0.0609711  0.147251 255   0   0
   0.136055 -0.00913519    0.161751 255   0   0
  0.135911 -0.0098459    0.16169 255   0   0
  0.135685 -0.0106363   0.161626 255   0   0
  0.135537 -0.0112215    0.16158 255   0   0
  0.135312 -0.0117056   0.161608 255   0   0
 0.135134 -0.012128  0.161651 255   0   0
  0.134925 -0.0123999   0.161755 255   0   0
  0.134743 -0.0125548   0.161869 255   0   0
  0.134568 -0.0126286   0.162001 255   0   0
  0.134501 -0.0125144   0.162136 255   0   0
0.229271 0.059719 0.147779 255   0   0
  0.134306 -0.0121332   0.162225 255   0   0
  0.134179 -0.0115045   0.162313 255   0   0
  0.134099 -0.0106248   0.162394 255   0   0
   0.134061 -0.00949613    0.162542 255   0   0
 0.133945 -0.008197  0.162658 255   0   0
   0.133949 -0.00673124    0.162722 255   0   0
  0.133898 -0.0049221   0.162871 255   0   0
   0.133968 -0.00291035    0.162991 255   0   0
   0.134076 -0.00083397    0.163152 255   0   0
 0.134226 0.0013296  0.163299 255   0   0
 0.228404 0.0583305  0.147354 255   0   0
  0.13434 0.0036345  0.163542 255   0   0
  0.134504 0.00596867   0.163753 255   0   0
  0.134762 0.00847738   0.164064 255   0   0
  0.13503 0.0110635  0.164415 255   0   0
 0.13533 0.013673 0.164834 255   0   0
 0.135708 0.0165274  0.165273 255   0   0
 0.135869 0.0194993  0.165665 255   0   0
 0.136123 0.0229531  0.166026 255   0   0
  0.13638 0.0266483  0.166373 255   0   0
 0.136651 0.0304501  0.166695 255   0   0
  0.22749 0.0585259  0.147267 255   0   0
  0.13699 0.0344195   0.16703 255   0   0
 0.137383 0.0387441  0.167418 255   0   0
 0.137762 0.0430619  0.167782 255   0   0
 0.138161 0.0476874  0.168204 255   0   0
 0.138527 0.0522501  0.168603 255   0   0
 0.138928 0.0568927  0.169012 255   0   0
 0.139293 0.0614975  0.169473 255   0   0
 0.139572 0.0661146  0.170022 255   0   0
 0.139865 0.0708237  0.170654 255   0   0
 0.140144 0.0753574  0.171421 255   0   0
 0.225766 0.0613475  0.148462 255   0   0
 0.140499 0.0800764  0.172376 255   0   0
 0.140624 0.0847948  0.173493 255   0   0
 0.140693 0.0900714  0.174566 255   0   0
0.140765 0.095273 0.175382 255   0   0
0.140666 0.100778 0.176116 255   0   0
0.140725 0.106108 0.176738 255   0   0
0.140745 0.111505 0.177398 255   0   0
0.140874 0.116746 0.178177 255   0   0
0.140971 0.122166 0.179029 255   0   0
0.141014 0.127622 0.179948 255   0   0
 0.222961 0.0588809   0.14844 255   0   0
  0.1412 0.133351 0.180717 255   0   0
0.141312 0.139259 0.181325 255   0   0
0.141664 0.144991 0.181824 255   0   0
0.141851 0.150681 0.182255 255   0   0
0.142138 0.156182 0.182599 255   0   0
0.142369  0.16158 0.182979 255   0   0
0.142776 0.166757 0.183326 255   0   0
0.143073 0.171639 0.183777 255   0   0
0.143444 0.176211 0.184215 255   0   0
0.143709 0.180654 0.184643 255   0   0
 0.133074 0.0600224  0.176619 255   0   0
 0.133446 0.0597533  0.177937 255   0   0
 0.221353 0.0575578  0.148272 255   0   0
0.143929  0.18463 0.185105 255   0   0
0.144263 0.188166 0.185529 255   0   0
0.144326  0.19144  0.18588 255   0   0
0.144461 0.194395 0.186065 255   0   0
0.144708 0.196728 0.186192 255   0   0
0.144958 0.198409 0.186379 255   0   0
0.145332 0.199471 0.186491 255   0   0
0.145498 0.199893 0.186766 255   0   0
0.145987 0.199901 0.186739 255   0   0
0.146096 0.199136 0.187065 255   0   0
  0.21885 0.0567609  0.148509 255   0   0
0.144561 0.197514  0.18763 255   0   0
0.146542 0.196872 0.186907 255   0   0
0.146832 0.195058 0.186661 255   0   0
 0.14706 0.192811 0.186359 255   0   0
 0.14731 0.190121 0.186099 255   0   0
0.147425 0.187139 0.185831 255   0   0
0.147776 0.184064 0.185286 255   0   0
0.147821 0.180801 0.184698 255   0   0
0.148194 0.177202 0.183884 255   0   0
0.148046 0.173298 0.183346 255   0   0
 0.215668 0.0570731  0.149079 255   0   0
0.148091 0.169031 0.182601 255   0   0
0.148511 0.164347  0.18155 255   0   0
0.148157 0.159701 0.181021 255   0   0
0.148177 0.154649 0.180315 255   0   0
0.148154 0.149467 0.179549 255   0   0
0.148373 0.144016 0.178645 255   0   0
0.147794 0.139099 0.177762 255   0   0
0.147542 0.133807 0.176671 255   0   0
0.147388 0.128263 0.175611 255   0   0
0.147376 0.122534 0.174652 255   0   0
 0.212868 0.0563637   0.14931 255   0   0
0.147217 0.116839 0.173774 255   0   0
0.147102 0.111266 0.172892 255   0   0
0.146869 0.105691  0.17194 255   0   0
0.146614 0.100032 0.170949 255   0   0
 0.146335 0.0942246   0.16999 255   0   0
 0.146101 0.0884775  0.169103 255   0   0
  0.14567 0.0827645  0.168274 255   0   0
  0.14534 0.0771397    0.1674 255   0   0
 0.144882 0.0715957  0.166567 255   0   0
 0.144477 0.0660992  0.165751 255   0   0
 0.209851 0.0562909  0.149837 255   0   0
 0.14413 0.060588 0.165031 255   0   0
 0.143708 0.0549918  0.164416 255   0   0
 0.143294 0.0496645  0.163882 255   0   0
 0.142902 0.0447771  0.163241 255   0   0
 0.142419 0.0400613  0.162533 255   0   0
 0.142096 0.0354385  0.161873 255   0   0
 0.141897 0.0307167  0.161405 255   0   0
 0.141766 0.0258805  0.161011 255   0   0
 0.141559 0.0213911   0.16063 255   0   0
  0.14146 0.0173453  0.160167 255   0   0
 0.207487 0.0547091  0.149774 255   0   0
 0.141369 0.0138199  0.159642 255   0   0
0.141318 0.010582 0.159137 255   0   0
   0.14127 0.00737557   0.158613 255   0   0
  0.141321 0.00421528   0.158117 255   0   0
  0.141358 0.00126641   0.157557 255   0   0
   0.141376 -0.00118676    0.156963 255   0   0
   0.141425 -0.00318454    0.156326 255   0   0
   0.141519 -0.00468764     0.15568 255   0   0
  0.141654 -0.0062205   0.154978 255   0   0
   0.141729 -0.00792563    0.154368 255   0   0
  0.20413 0.0546389  0.150407 255   0   0
  0.141751 -0.0096378   0.153813 255   0   0
  0.141846 -0.0112489   0.153284 255   0   0
  0.142009 -0.0126315   0.152772 255   0   0
  0.142155 -0.0139154    0.15234 255   0   0
  0.142343 -0.0149492   0.152047 255   0   0
  0.142732 -0.0165077   0.151435 255   0   0
 0.142698 -0.017328  0.151595 255   0   0
  0.142823 -0.0183733   0.151444 255   0   0
  0.142863 -0.0191762   0.151392 255   0   0
  0.142137 -0.0193647   0.151793 255   0   0
 0.200488 0.0544879   0.15104 255   0   0
  0.142961 -0.0205342   0.151277 255   0   0
  0.143076 -0.0207782   0.151526 255   0   0
  0.144356 -0.0215681    0.15111 255   0   0
  0.143128 -0.0209271   0.151695 255   0   0
  0.143127 -0.0202405   0.152077 255   0   0
 0.143051 -0.019468  0.152398 255   0   0
  0.143094 -0.0182969   0.152735 255   0   0
  0.143052 -0.0168461   0.153044 255   0   0
  0.142969 -0.0148512   0.153576 255   0   0
  0.142972 -0.0125825   0.154037 255   0   0
 0.196919 0.0538854  0.151524 255   0   0
   0.143011 -0.00996019    0.154577 255   0   0
   0.143014 -0.00709948    0.155134 255   0   0
 0.143028 -0.004027  0.155777 255   0   0
    0.143114 -0.000830042     0.156481 255   0   0
 0.143181 0.0024689  0.157247 255   0   0
 0.147038 0.0504718  0.142475 255   0   0
 0.147438 0.0503116  0.142255 255   0   0
 0.148094 0.0501775  0.142415 255   0   0
  0.13418 0.0601807  0.178552 255   0   0
0.0314275 0.0550385  0.166562 255   0   0
 0.148728 0.0500179  0.142923 255   0   0
 0.149282 0.0498533  0.143602 255   0   0
 0.150022 0.0496164  0.144425 255   0   0
 0.150825 0.0493757   0.14555 255   0   0
0.151649 0.049213 0.146947 255   0   0
0.152392 0.049151 0.148722 255   0   0
 0.152987 0.0490341  0.150768 255   0   0
 0.153587 0.0488966  0.153094 255   0   0
 0.154162 0.0486929  0.155633 255   0   0
 0.154612 0.0484221   0.15838 255   0   0
0.0330882 0.0550527  0.166658 255   0   0
 0.155213 0.0479686  0.161157 255   0   0
 0.155949 0.0475258  0.164252 255   0   0
0.156741 0.046993 0.167631 255   0   0
 0.157412 0.0464115  0.171215 255   0   0
 0.157791 0.0456195  0.174825 255   0   0
 0.158498 0.0446482  0.178394 255   0   0
 0.159589 0.0435421  0.182127 255   0   0
 0.160846 0.0428462  0.186256 255   0   0
 0.161943 0.0419089  0.190558 255   0   0
  0.16286 0.0413338  0.194933 255   0   0
0.0348906 0.0549718   0.16665 255   0   0
0.163495 0.040912 0.199386 255   0   0
  0.16418 0.0400352  0.203539 255   0   0
 0.165287 0.0394348  0.207721 255   0   0
 0.166496 0.0386156  0.211907 255   0   0
 0.167613 0.0382977  0.216197 255   0   0
 0.168713 0.0378654  0.220335 255   0   0
0.169768 0.037433  0.22419 255   0   0
 0.170843 0.0371638   0.22795 255   0   0
 0.171939 0.0368222  0.231731 255   0   0
 0.173225 0.0366105  0.235474 255   0   0
0.0369213 0.0549679  0.166709 255   0   0
 0.174381 0.0364482  0.239273 255   0   0
 0.175705 0.0362244   0.24282 255   0   0
 0.177088 0.0360704  0.246167 255   0   0
  0.17823 0.0359383   0.24936 255   0   0
 0.179298 0.0359028  0.252221 255   0   0
 0.180175 0.0359644  0.255034 255   0   0
 0.181017 0.0359206  0.257734 255   0   0
0.182029 0.035711 0.260292 255   0   0
  0.18227 0.0358496  0.263098 255   0   0
 0.184206 0.0356954  0.265042 255   0   0
0.0391298 0.0548862  0.166668 255   0   0
 0.184832 0.0355662  0.267054 255   0   0
  0.18505 0.0354005   0.26895 255   0   0
 0.185913 0.0350795  0.270432 255   0   0
 0.186806 0.0346187  0.271855 255   0   0
 0.187412 0.0342284   0.27318 255   0   0
 0.188107 0.0342314  0.274259 255   0   0
 0.188813 0.0347809  0.274946 255   0   0
 0.188711 0.0335606  0.275446 255   0   0
 0.188783 0.0330726  0.275663 255   0   0
 0.189573 0.0287103  0.274776 255   0   0
 0.041538 0.0549771  0.166613 255   0   0
 0.188705 0.0321889  0.275461 255   0   0
 0.186806 0.0324996  0.275673 255   0   0
 0.188145 0.0313283    0.2742 255   0   0
 0.187633 0.0307028  0.273207 255   0   0
0.187187 0.030418  0.27197 255   0   0
 0.185694 0.0321773  0.271027 255   0   0
 0.185947 0.0312478  0.269024 255   0   0
 0.185319 0.0301366  0.266112 255   0   0
 0.183836 0.0325545  0.264079 255   0   0
 0.183723 0.0300875  0.260569 255   0   0
0.0438981  0.055224  0.166332 255   0   0
 0.182199 0.0299528  0.257559 255   0   0
 0.180946 0.0300201  0.254214 255   0   0
 0.179917 0.0303761  0.250535 255   0   0
 0.178657 0.0306454  0.246775 255   0   0
 0.177227 0.0305351  0.242782 255   0   0
 0.175692 0.0304863  0.238558 255   0   0
 0.174023 0.0304765   0.23408 255   0   0
 0.172231 0.0307603  0.229455 255   0   0
 0.170528 0.0311957  0.224803 255   0   0
 0.168781 0.0314614  0.220121 255   0   0
0.0462723 0.0552359  0.165992 255   0   0
 0.167211 0.0314221  0.215285 255   0   0
 0.165577 0.0313454  0.210461 255   0   0
 0.163581 0.0312031  0.205683 255   0   0
 0.161502 0.0312915   0.20086 255   0   0
 0.159581 0.0316707    0.1961 255   0   0
 0.157885 0.0318188  0.191314 255   0   0
 0.156378 0.0318666  0.186572 255   0   0
0.154823 0.031812 0.181795 255   0   0
 0.153253 0.0317956  0.177008 255   0   0
 0.151507 0.0318206  0.172237 255   0   0
0.0489125 0.0549547  0.165764 255   0   0
 0.149826 0.0320834  0.167599 255   0   0
  0.14826 0.0323377  0.162999 255   0   0
  0.14675 0.0324741   0.15848 255   0   0
 0.145374 0.0326501  0.154212 255   0   0
 0.144046 0.0326052   0.15017 255   0   0
 0.142783 0.0327756   0.14642 255   0   0
  0.14166 0.0333056  0.142818 255   0   0
 0.140507 0.0337718  0.139442 255   0   0
0.139429 0.034014 0.136378 255   0   0
 0.138472 0.0340171  0.133782 255   0   0
0.0517566 0.0546161  0.165696 255   0   0
 0.137608 0.0338406  0.131633 255   0   0
 0.136796 0.0337084  0.129903 255   0   0
 0.136152 0.0336475  0.128543 255   0   0
0.135656 0.033503 0.127607 255   0   0
  0.13533 0.0332675  0.127233 255   0   0
 0.135137 0.0327638  0.127493 255   0   0
 0.135165 0.0321138  0.128382 255   0   0
 0.135233 0.0315144  0.129845 255   0   0
0.135459 0.030952 0.131752 255   0   0
 0.135804 0.0304334  0.134143 255   0   0
 0.134291 0.0602562  0.178577 255   0   0
0.0548248 0.0544231  0.165697 255   0   0
  0.13627 0.0298682  0.136967 255   0   0
 0.136709 0.0291054  0.140287 255   0   0
 0.137369 0.0283877  0.144235 255   0   0
 0.138111 0.0276028  0.148644 255   0   0
 0.139083 0.0269083  0.153456 255   0   0
 0.140225 0.0261974  0.158618 255   0   0
 0.141404 0.0256084  0.164155 255   0   0
 0.142558 0.0250347  0.169813 255   0   0
 0.143468 0.0246152  0.175664 255   0   0
 0.144443 0.0242569  0.181614 255   0   0
0.0578248 0.0544738  0.165481 255   0   0
 0.145221 0.0241004  0.187682 255   0   0
 0.146022 0.0241168  0.193801 255   0   0
 0.147202 0.0241784  0.199798 255   0   0
 0.148111 0.0241624  0.205819 255   0   0
 0.148982 0.0241923  0.211898 255   0   0
 0.149825 0.0240691  0.217866 255   0   0
 0.150832 0.0240889  0.223784 255   0   0
 0.151922 0.0241637  0.229683 255   0   0
 0.153134 0.0244033  0.235115 255   0   0
 0.154439 0.0246565  0.240256 255   0   0
0.0607763 0.0545311  0.165016 255   0   0
 0.155621 0.0248514  0.245025 255   0   0
 0.156803 0.0253661  0.249631 255   0   0
 0.158316 0.0256652  0.253703 255   0   0
 0.159376 0.0257259  0.257219 255   0   0
 0.160385 0.0259602   0.25992 255   0   0
 0.160989 0.0262406  0.261543 255   0   0
 0.161202 0.0271962  0.262226 255   0   0
 0.161559 0.0281503  0.261591 255   0   0
 0.161228 0.0293066  0.259936 255   0   0
 0.160804 0.0301654  0.256998 255   0   0
0.0636902 0.0540854  0.164437 255   0   0
 0.159885 0.0312599   0.25323 255   0   0
 0.158906 0.0326619  0.248715 255   0   0
 0.156117 0.0344013   0.24402 255   0   0
 0.156714 0.0352621  0.238336 255   0   0
 0.155967 0.0357312  0.232422 255   0   0
 0.154734 0.0364255   0.22651 255   0   0
 0.153402 0.0366079  0.220223 255   0   0
 0.151901 0.0370396  0.213717 255   0   0
 0.150438 0.0376995  0.207003 255   0   0
 0.149069 0.0383868  0.200127 255   0   0
0.0670097  0.053554   0.16419 255   0   0
0.147648 0.038736 0.193253 255   0   0
 0.146137 0.0388525  0.186523 255   0   0
 0.144473 0.0391114  0.179898 255   0   0
 0.142906 0.0394689  0.173244 255   0   0
0.141424  0.04016  0.16666 255   0   0
  0.13992 0.0408844  0.160265 255   0   0
 0.138467 0.0414686  0.154265 255   0   0
 0.137155 0.0418458  0.148704 255   0   0
 0.136011 0.0419577  0.143683 255   0   0
 0.134975 0.0420111  0.139238 255   0   0
 0.070536 0.0532243   0.16408 255   0   0
0.134017 0.042038 0.135356 255   0   0
 0.133099 0.0419641  0.132068 255   0   0
 0.132229 0.0416695   0.12951 255   0   0
 0.131388 0.0410687  0.127752 255   0   0
 0.130688 0.0402026  0.126819 255   0   0
 0.130116 0.0391369  0.126759 255   0   0
 0.129762 0.0380097  0.127588 255   0   0
 0.129521 0.0366854  0.129238 255   0   0
 0.129504 0.0355037   0.13168 255   0   0
 0.129576 0.0343306  0.134761 255   0   0
0.0741067 0.0529098   0.16381 255   0   0
 0.129971 0.0332866  0.138356 255   0   0
0.130576 0.032315 0.142401 255   0   0
 0.131258 0.0314157  0.146893 255   0   0
 0.132163 0.0305946  0.151807 255   0   0
 0.133119 0.0298787   0.15699 255   0   0
 0.134166 0.0292252  0.162434 255   0   0
 0.135254 0.0289017  0.168152 255   0   0
 0.136528 0.0284451  0.174004 255   0   0
 0.137839 0.0279844  0.180082 255   0   0
  0.13923 0.0274541  0.186113 255   0   0
0.0778886 0.0527774  0.163455 255   0   0
 0.140592 0.0271193  0.192232 255   0   0
 0.141979 0.0268874  0.198375 255   0   0
 0.143432 0.0264866  0.204577 255   0   0
 0.144985 0.0261165  0.210774 255   0   0
 0.146406 0.0258027  0.216966 255   0   0
 0.147919 0.0257459  0.223082 255   0   0
 0.149551 0.0257979  0.229053 255   0   0
  0.15128 0.0260383  0.234876 255   0   0
 0.152843 0.0265296  0.240572 255   0   0
 0.154515 0.0268225  0.245803 255   0   0
0.0818543 0.0525496  0.163069 255   0   0
0.156297 0.027575 0.250758 255   0   0
 0.157682 0.0284477  0.255222 255   0   0
 0.159183 0.0292279  0.258864 255   0   0
 0.160518 0.0303293  0.261724 255   0   0
 0.162044 0.0311127  0.263496 255   0   0
  0.16442 0.0311644  0.263871 255   0   0
 0.163291 0.0333814  0.264537 255   0   0
0.163385 0.034516 0.263569 255   0   0
 0.163486 0.0348721  0.261468 255   0   0
 0.163064 0.0359096  0.258531 255   0   0
0.0861925 0.0525618  0.162772 255   0   0
 0.162723 0.0370399  0.254726 255   0   0
 0.162466 0.0376311  0.250084 255   0   0
  0.16205 0.0384305  0.245009 255   0   0
 0.161504 0.0390133  0.239426 255   0   0
0.160737 0.039093 0.233343 255   0   0
 0.159146 0.0394111  0.227012 255   0   0
 0.157667 0.0398447   0.22031 255   0   0
 0.156108 0.0401305  0.213336 255   0   0
 0.154541 0.0404118  0.206248 255   0   0
 0.152934 0.0406844  0.199089 255   0   0
 0.134414 0.0602407  0.178603 255   0   0
 0.090558 0.0526038  0.162372 255   0   0
 0.151401 0.0410921  0.191968 255   0   0
 0.150038 0.0415938  0.184886 255   0   0
 0.148847 0.0419786  0.177885 255   0   0
 0.147473 0.0422136  0.171221 255   0   0
  0.14624 0.0423171  0.164847 255   0   0
 0.144978 0.0425942  0.158829 255   0   0
 0.143865 0.0431102  0.153066 255   0   0
 0.142697 0.0436928   0.14763 255   0   0
 0.141554 0.0443275  0.142537 255   0   0
 0.140399 0.0447357  0.137886 255   0   0
0.0949634 0.0526509  0.161908 255   0   0
 0.139256 0.0449961  0.133813 255   0   0
0.138172 0.045192 0.130345 255   0   0
 0.137288 0.0455001  0.127458 255   0   0
 0.136635 0.0457646  0.125208 255   0   0
 0.136104 0.0457333  0.123704 255   0   0
 0.135653 0.0453934  0.123014 255   0   0
 0.135235 0.0447966  0.123164 255   0   0
 0.134973 0.0440706  0.124088 255   0   0
 0.134868 0.0434202  0.125705 255   0   0
 0.134878 0.0427856  0.127973 255   0   0
0.0994294 0.0525972  0.161419 255   0   0
 0.135027 0.0422482  0.130833 255   0   0
 0.135305 0.0417551  0.134192 255   0   0
 0.135614 0.0413077  0.138086 255   0   0
 0.136015 0.0408825  0.142419 255   0   0
 0.136521 0.0406155  0.147151 255   0   0
  0.13723 0.0405302  0.152164 255   0   0
 0.137899 0.0406328  0.157461 255   0   0
 0.138584 0.0407643  0.162961 255   0   0
 0.139164 0.0407074  0.168815 255   0   0
 0.139889 0.0405738  0.174934 255   0   0
 0.103958 0.0526729  0.160867 255   0   0
 0.140702 0.0404332  0.181231 255   0   0
 0.141479 0.0400895  0.187599 255   0   0
 0.142202 0.0398471  0.194155 255   0   0
 0.142827 0.0396919  0.200868 255   0   0
 0.143462 0.0392541  0.207608 255   0   0
  0.14422 0.0389949  0.214408 255   0   0
 0.145105 0.0388074  0.221124 255   0   0
 0.146037 0.0384313  0.227703 255   0   0
 0.146729 0.0381607  0.234087 255   0   0
 0.147597 0.0382982   0.24013 255   0   0
 0.108685 0.0527904  0.160257 255   0   0
 0.148625 0.0383745  0.245479 255   0   0
 0.149196 0.0385505   0.25016 255   0   0
 0.149991 0.0394034  0.254022 255   0   0
  0.15035 0.0399668  0.256907 255   0   0
 0.150739 0.0408186  0.258922 255   0   0
 0.151132 0.0414684  0.259942 255   0   0
 0.150777 0.0417531  0.260115 255   0   0
 0.150492 0.0425357  0.259241 255   0   0
 0.149916 0.0430654  0.257307 255   0   0
 0.148887 0.0438673  0.254452 255   0   0
 0.113474 0.0529453  0.159671 255   0   0
 0.148094 0.0448769  0.250712 255   0   0
 0.146993 0.0456514  0.246204 255   0   0
 0.145917 0.0468344  0.241263 255   0   0
 0.144622 0.0474284  0.235925 255   0   0
 0.143291 0.0479751  0.230283 255   0   0
 0.142084 0.0484693  0.224548 255   0   0
 0.140887 0.0487183  0.218521 255   0   0
 0.139358 0.0491408  0.212446 255   0   0
  0.13835 0.0489669  0.206065 255   0   0
 0.136865 0.0492576   0.19947 255   0   0
 0.118526 0.0531165  0.159087 255   0   0
 0.135443 0.0496585  0.192968 255   0   0
 0.133902 0.0498964  0.186412 255   0   0
 0.132406 0.0499494  0.179907 255   0   0
 0.130773 0.0500106  0.173613 255   0   0
 0.12919 0.050024 0.167556 255   0   0
 0.127739 0.0500561  0.161766 255   0   0
 0.126572 0.0499169  0.156308 255   0   0
 0.125395 0.0495704  0.151306 255   0   0
 0.124312 0.0489946  0.146797 255   0   0
 0.123229 0.0483053  0.142783 255   0   0
 0.123548 0.0534043  0.158552 255   0   0
 0.122302 0.0474554  0.139269 255   0   0
 0.121504 0.0467822  0.136287 255   0   0
  0.12086 0.0463333  0.133788 255   0   0
 0.120367 0.0459826  0.131808 255   0   0
 0.119978 0.0455287  0.130479 255   0   0
 0.119765 0.0448593  0.129892 255   0   0
 0.119729 0.0439462  0.130073 255   0   0
 0.119782 0.0430024   0.13104 255   0   0
 0.120044 0.0420983  0.132663 255   0   0
 0.120458 0.0413716  0.134962 255   0   0
 0.128689 0.0536188  0.157981 255   0   0
0.121039 0.040695 0.137835 255   0   0
 0.121834 0.0399725   0.14127 255   0   0
 0.122715 0.0392683  0.145287 255   0   0
  0.12365 0.0386802  0.149804 255   0   0
 0.124668 0.0382254  0.154782 255   0   0
 0.125675 0.0376765  0.160124 255   0   0
 0.126779 0.0372692  0.165835 255   0   0
 0.127972 0.0371791  0.171903 255   0   0
  0.12916 0.0371024   0.17828 255   0   0
 0.130487 0.0370966  0.185036 255   0   0
 0.133839 0.0538474  0.157382 255   0   0
 0.131884 0.0368757  0.192112 255   0   0
  0.13336 0.0364143   0.19954 255   0   0
 0.134724 0.0359188  0.207051 255   0   0
 0.136059 0.0356677  0.214557 255   0   0
 0.137518 0.0353617  0.221758 255   0   0
  0.13913 0.0351967  0.228758 255   0   0
 0.140953 0.0349974  0.235282 255   0   0
0.142736 0.034597 0.241403 255   0   0
 0.144346 0.0337306  0.247095 255   0   0
 0.145812 0.0327319  0.252245 255   0   0
 0.134422 0.0601992  0.178724 255   0   0
 0.138935 0.0541542  0.156707 255   0   0
 0.147295 0.0314644  0.256615 255   0   0
 0.148705 0.0303538  0.260309 255   0   0
 0.150071 0.0292048  0.263094 255   0   0
 0.150954 0.0281817  0.264853 255   0   0
 0.152071 0.0267982  0.265409 255   0   0
 0.152371 0.0257078  0.265251 255   0   0
 0.152737 0.0248104     0.264 255   0   0
 0.152658 0.0238677  0.261696 255   0   0
 0.152603 0.0234654  0.258398 255   0   0
 0.152458 0.0232089  0.254164 255   0   0
0.144023 0.054549 0.156013 255   0   0
 0.151942 0.0232915  0.249209 255   0   0
 0.151704 0.0239997  0.243616 255   0   0
 0.151631 0.0247139  0.237484 255   0   0
 0.151694 0.0256024  0.230893 255   0   0
 0.151597 0.0268328  0.224094 255   0   0
 0.151574 0.0282625  0.217121 255   0   0
 0.151662 0.0296522  0.210003 255   0   0
  0.15187 0.0309466  0.202851 255   0   0
 0.151957 0.0322053  0.195789 255   0   0
 0.152197 0.0336613  0.188734 255   0   0
 0.149155 0.0548469  0.155294 255   0   0
 0.152595 0.0353185  0.181803 255   0   0
 0.152796 0.0365894  0.174988 255   0   0
 0.152852 0.0376117  0.168463 255   0   0
 0.152718 0.0386088  0.162274 255   0   0
 0.152533 0.0395268  0.156369 255   0   0
 0.152488 0.0405678  0.150758 255   0   0
 0.152488 0.0413593  0.145444 255   0   0
 0.152326 0.0419181  0.140611 255   0   0
  0.15212 0.0422838  0.136309 255   0   0
 0.151792 0.0424166   0.13254 255   0   0
 0.154343 0.0550161  0.154647 255   0   0
  0.15131 0.0423894   0.12946 255   0   0
 0.150812 0.0419876  0.127017 255   0   0
 0.150351 0.0413547  0.125355 255   0   0
 0.149893 0.0404177  0.124571 255   0   0
 0.149634 0.0393279  0.124753 255   0   0
 0.149536 0.0379014  0.125899 255   0   0
 0.149636 0.0362464  0.128006 255   0   0
 0.149837 0.0344072  0.131043 255   0   0
 0.150186 0.0324204  0.134918 255   0   0
0.150627 0.030396 0.139538 255   0   0
 0.159407 0.0552736  0.154087 255   0   0
 0.151206 0.0284424  0.144794 255   0   0
 0.151917 0.0266046  0.150507 255   0   0
 0.15261 0.024841 0.156571 255   0   0
 0.153346 0.0233748  0.162965 255   0   0
 0.154045 0.0220885   0.16969 255   0   0
  0.15495 0.0207505  0.176641 255   0   0
 0.155966 0.0195572  0.183872 255   0   0
0.157102 0.018429 0.191141 255   0   0
 0.158104 0.0173427  0.198638 255   0   0
 0.159238 0.0163009   0.20625 255   0   0
 0.164396 0.0553793  0.153415 255   0   0
 0.160777 0.0153933  0.213882 255   0   0
 0.162474 0.0145355   0.22163 255   0   0
 0.164309 0.0136799  0.229186 255   0   0
 0.165887 0.0127433  0.236479 255   0   0
 0.167544 0.0118288  0.243289 255   0   0
 0.166039 0.0143028  0.251398 255   0   0
 0.170315 0.0104738  0.255432 255   0   0
 0.171497 0.0099135  0.260644 255   0   0
  0.172835 0.00935655   0.264902 255   0   0
  0.173826 0.00847211   0.268064 255   0   0
 0.169169 0.0554207  0.152781 255   0   0
  0.171547 0.00966533   0.271608 255   0   0
  0.175532 0.00817885   0.271569 255   0   0
 0.170871 0.0122116  0.274148 255   0   0
 0.173104 0.0111026  0.272267 255   0   0
 0.173638 0.0111479  0.269954 255   0   0
 0.170394 0.0132785  0.268119 255   0   0
 0.170663 0.0125394  0.263474 255   0   0
 0.172459 0.0113477  0.257412 255   0   0
 0.171382 0.0129126  0.252201 255   0   0
  0.17042 0.0148507  0.246582 255   0   0
 0.173867 0.0554411  0.152251 255   0   0
 0.169483 0.0168195  0.240614 255   0   0
 0.168628 0.0183047  0.234068 255   0   0
 0.167541 0.0197431  0.227262 255   0   0
 0.166253 0.0215243  0.220213 255   0   0
 0.164928 0.0237792  0.212878 255   0   0
 0.163564 0.0262201  0.205405 255   0   0
 0.162176 0.0286046  0.197755 255   0   0
 0.160832 0.0307733  0.189913 255   0   0
 0.159238 0.0329002  0.182065 255   0   0
0.157513  0.03537 0.174216 255   0   0
 0.178609 0.0555865  0.151723 255   0   0
 0.155618 0.0383998  0.166499 255   0   0
 0.153814 0.0416289  0.158739 255   0   0
0.152159 0.044464 0.151055 255   0   0
 0.150493 0.0467518  0.143594 255   0   0
0.148688 0.048861 0.136568 255   0   0
  0.14694 0.0513166  0.129921 255   0   0
 0.145252 0.0538221  0.123789 255   0   0
 0.143935 0.0561044  0.118042 255   0   0
 0.142749 0.0578621  0.112859 255   0   0
 0.141656 0.0592836  0.108686 255   0   0
 0.183337 0.0557216  0.151137 255   0   0
 0.140886 0.0602335   0.10529 255   0   0
 0.140315 0.0609379  0.102787 255   0   0
 0.139841 0.0614032  0.101133 255   0   0
 0.139553 0.0615403  0.100293 255   0   0
 0.139494 0.0611313  0.100354 255   0   0
 0.139677 0.0601657  0.101341 255   0   0
0.140038  0.05885 0.103287 255   0   0
 0.140606 0.0572052  0.106101 255   0   0
 0.141316 0.0553919  0.109642 255   0   0
  0.14212 0.0533659  0.113901 255   0   0
 0.133074 0.0599361  0.176769 255   0   0
0.134485 0.060153 0.178809 255   0   0
 0.187883 0.0558297  0.150633 255   0   0
 0.143177 0.0510261  0.118619 255   0   0
 0.144464 0.0484131  0.123934 255   0   0
 0.145648 0.0457888  0.130113 255   0   0
 0.147045 0.0429832  0.136829 255   0   0
 0.148464 0.0402498   0.14406 255   0   0
 0.149964 0.0377102  0.151679 255   0   0
 0.151414 0.0351451  0.159539 255   0   0
 0.152959 0.0326943   0.16755 255   0   0
 0.154535 0.0303742  0.175706 255   0   0
0.156207 0.028263 0.184043 255   0   0
 0.192371 0.0558823  0.150217 255   0   0
 0.157915 0.0260473  0.192354 255   0   0
0.159588 0.024007 0.200693 255   0   0
 0.161217 0.0219789   0.20875 255   0   0
  0.1628 0.020287 0.216717 255   0   0
 0.164335 0.0189594  0.224585 255   0   0
 0.166081 0.0176475  0.232097 255   0   0
 0.167564 0.0163828  0.239406 255   0   0
 0.169063 0.0152111  0.246216 255   0   0
 0.170292 0.0143466  0.252558 255   0   0
 0.171294 0.0136898  0.258208 255   0   0
 0.196719 0.0560292  0.149762 255   0   0
 0.172089 0.0132893  0.262857 255   0   0
 0.172747 0.0133699  0.266391 255   0   0
 0.173371 0.0139416  0.268592 255   0   0
 0.173474 0.0147983  0.269479 255   0   0
 0.173408 0.0156537   0.26903 255   0   0
 0.169267 0.0211846  0.269374 255   0   0
 0.172141 0.0177529  0.264119 255   0   0
 0.170773 0.0196515  0.260198 255   0   0
 0.169358 0.0217837   0.25525 255   0   0
 0.168453 0.0239483  0.249348 255   0   0
 0.200871 0.0563516  0.149255 255   0   0
 0.166021 0.0257922  0.243071 255   0   0
  0.16418 0.0276264  0.236158 255   0   0
  0.16198 0.0289311  0.228773 255   0   0
 0.159564 0.0308907  0.221089 255   0   0
 0.156935 0.0332165  0.212845 255   0   0
  0.15427 0.0361158   0.20464 255   0   0
0.151545 0.038651 0.196309 255   0   0
 0.148858 0.0409428  0.187998 255   0   0
  0.14626 0.0429674  0.179819 255   0   0
0.143693 0.045289 0.171857 255   0   0
 0.205498 0.0561446  0.147942 255   0   0
 0.141294 0.0476339  0.164073 255   0   0
 0.138932 0.0501517  0.156627 255   0   0
 0.136665 0.0523892  0.149407 255   0   0
 0.134411 0.0543374  0.142477 255   0   0
 0.132187 0.0562894  0.135922 255   0   0
 0.130084 0.0584197  0.129635 255   0   0
 0.128061 0.0604327   0.12371 255   0   0
 0.126205 0.0622282  0.118231 255   0   0
 0.124811 0.0632846  0.113097 255   0   0
0.123171 0.064209 0.108867 255   0   0
 0.208691 0.0571994   0.14783 255   0   0
0.121791 0.064649  0.10503 255   0   0
 0.120523 0.0649234  0.101721 255   0   0
 0.119397 0.0653109 0.0988837 255   0   0
 0.118513 0.0654877 0.0965034 255   0   0
 0.117962 0.0654387  0.094786 255   0   0
  0.11775 0.0648721 0.0937925 255   0   0
 0.117761 0.0641573 0.0936767 255   0   0
 0.118028 0.0633611 0.0942987 255   0   0
  0.11845 0.0625571 0.0955969 255   0   0
 0.118989 0.0616484 0.0975329 255   0   0
 0.212539 0.0575369  0.147298 255   0   0
0.119692 0.060431 0.100156 255   0   0
 0.120633 0.0588835   0.10352 255   0   0
  0.12177 0.0571236  0.107665 255   0   0
 0.123038 0.0552343  0.112535 255   0   0
 0.124423 0.0533635  0.118073 255   0   0
 0.125817 0.0515575   0.12424 255   0   0
0.127313 0.049792 0.131038 255   0   0
 0.129148 0.0480514  0.138467 255   0   0
 0.130886 0.0463498  0.146695 255   0   0
0.133107 0.044312 0.154969 255   0   0
 0.216033 0.0581237  0.147088 255   0   0
0.134939  0.04239 0.163911 255   0   0
 0.136533 0.0404924  0.173389 255   0   0
 0.138852 0.0386819     0.183 255   0   0
 0.141247 0.0365021  0.192645 255   0   0
 0.143209 0.0346119  0.202536 255   0   0
 0.145468 0.0328829  0.212333 255   0   0
 0.147617 0.0311581   0.22227 255   0   0
 0.150061 0.0291219  0.232323 255   0   0
 0.152849 0.0272863  0.242626 255   0   0
 0.155774 0.0253823  0.252571 255   0   0
 0.219439 0.0583234  0.146323 255   0   0
0.158533 0.023473 0.262215 255   0   0
 0.160895 0.0216047  0.271728 255   0   0
0.163123 0.019533 0.281208 255   0   0
 0.168878 0.0160328  0.289035 255   0   0
  0.16799 0.0159169  0.298564 255   0   0
 0.177981 0.0110182  0.303669 255   0   0
  0.17012 0.0178894  0.313174 255   0   0
0.170641  0.01594 0.319292 255   0   0
 0.180443 0.0110239  0.319963 255   0   0
   0.17653 0.00964953   0.323144 255   0   0
 0.223149 0.0577759  0.145147 255   0   0
 0.175958 0.0059842  0.323919 255   0   0
 0.160992 0.0256824  0.331553 255   0   0
 0.169106 0.0264764  0.326925 255   0   0
 0.171874 0.0158355  0.321059 255   0   0
 0.172323 0.0180022  0.317105 255   0   0
 0.172905 0.0165447  0.311517 255   0   0
0.167953 0.023885 0.307832 255   0   0
 0.175538 0.0183372  0.297711 255   0   0
 0.177215 0.0123788  0.287524 255   0   0
 0.170438 0.0221693  0.283283 255   0   0
 0.134462 0.0601637  0.178925 255   0   0
0.226441 0.058969 0.144577 255   0   0
 0.165712 0.0260266  0.275954 255   0   0
 0.163199 0.0281321  0.267264 255   0   0
 0.161219 0.0306429  0.258106 255   0   0
 0.159119 0.0325781  0.248519 255   0   0
 0.157047 0.0345012  0.238757 255   0   0
 0.154977 0.0363731  0.228947 255   0   0
0.152929 0.038006 0.219188 255   0   0
0.151126 0.039626 0.209428 255   0   0
 0.149134 0.0414431  0.199955 255   0   0
  0.14714 0.0428716  0.190623 255   0   0
 0.228686 0.0600226  0.144206 255   0   0
 0.14505 0.044016 0.181559 255   0   0
 0.142944 0.0449212  0.172917 255   0   0
