ply
format ascii 1.0
element vertex 1142
property float x
property float y
property float z
property uchar red
property uchar green
property uchar blue
end_header
0.142272 0.164515 0.170625   0 255   0
0.141653 0.164182 0.170693   0 255   0
0.141034 0.163556 0.170718   0 255   0
0.140444 0.162609 0.170721   0 255   0
0.139894 0.161368 0.170705   0 255   0
0.139388 0.159887 0.170664   0 255   0
0.138924  0.15821 0.170607   0 255   0
0.138502 0.156351 0.170555   0 255   0
0.137831 0.152153 0.170529   0 255   0
0.137632 0.149898 0.170547   0 255   0
0.137549 0.147599 0.170561   0 255   0
0.137562 0.145256 0.170564   0 255   0
0.137616 0.142824 0.170566   0 255   0
0.137657 0.140246 0.170575   0 255   0
0.137671 0.137483 0.170596   0 255   0
0.137694 0.134535 0.170628   0 255   0
0.137928 0.128162 0.170715   0 255   0
0.138144 0.124757 0.170773   0 255   0
0.138381 0.121206 0.170843   0 255   0
0.138609 0.117509 0.170918   0 255   0
0.138816 0.113674 0.170988   0 255   0
0.138997 0.109707 0.171042   0 255   0
0.139142   0.1056 0.171072   0 255   0
0.139235 0.101332  0.17107   0 255   0
  0.13924 0.0922132  0.170959   0 255   0
 0.139199 0.0873326  0.170848   0 255   0
 0.139181 0.0822428  0.170703   0 255   0
 0.139212 0.0769737  0.170521   0 255   0
 0.139301 0.0715701  0.170303   0 255   0
0.139441  0.06607 0.170049   0 255   0
 0.139623 0.0604828  0.169759   0 255   0
 0.139848 0.0547913  0.169434   0 255   0
 0.140495 0.0430911  0.168683   0 255   0
 0.140975 0.0371844  0.168264   0 255   0
 0.141584 0.0313373  0.167829   0 255   0
  0.14229 0.0255779  0.167393   0 255   0
 0.143023 0.0198783  0.166966   0 255   0
  0.14372 0.0141918  0.166554   0 255   0
  0.144372 0.00849742   0.166157   0 255   0
  0.145031 0.00281606   0.165781   0 255   0
   0.146547 -0.00833449    0.165109   0 255   0
 0.147362 -0.013728  0.164819   0 255   0
  0.148128 -0.0189625   0.164559   0 255   0
  0.148803 -0.0240108   0.164327   0 255   0
  0.149391 -0.0288459   0.164125   0 255   0
  0.149927 -0.0334505   0.163952   0 255   0
  0.150457 -0.0378266   0.163799   0 255   0
   0.15102 -0.0419909   0.163648   0 255   0
  0.152338 -0.0496995   0.163259   0 255   0
  0.153102 -0.0531832   0.162999   0 255   0
  0.153921 -0.0563601   0.162697   0 255   0
  0.154775 -0.0592147    0.16235   0 255   0
 0.155641 -0.061765  0.161949   0 255   0
  0.156506 -0.0640349   0.161496   0 255   0
  0.157376 -0.0660257   0.161005   0 255   0
  0.158271 -0.0677091   0.160511   0 255   0
  0.160177 -0.0700115   0.159633   0 255   0
  0.161146 -0.0705979   0.159251   0 255   0
  0.162064 -0.0708065   0.158868   0 255   0
  0.162889 -0.0706299   0.158445   0 255   0
    0.1636 -0.0700507   0.157953   0 255   0
   0.16418 -0.0690578   0.157373   0 255   0
  0.164602 -0.0676651   0.156698   0 255   0
  0.164832 -0.0659152   0.155936   0 255   0
  0.164655 -0.0615445   0.154288   0 255   0
  0.164292 -0.0589924   0.153512   0 255   0
  0.163809 -0.0562255   0.152848   0 255   0
  0.163238 -0.0532749   0.152331   0 255   0
  0.162587 -0.0501859   0.151969   0 255   0
  0.161849 -0.0470088   0.151752   0 255   0
  0.161013 -0.0437873   0.151658   0 255   0
  0.160065 -0.0405501   0.151664   0 255   0
  0.157775 -0.0340574   0.151892   0 255   0
  0.156384 -0.0307795   0.152077   0 255   0
  0.154791 -0.0274568   0.152287   0 255   0
  0.152978 -0.0240805   0.152505   0 255   0
  0.150937 -0.0206559   0.152714   0 255   0
  0.148676 -0.0171963   0.152903   0 255   0
  0.146222 -0.0137129    0.15307   0 255   0
  0.143608 -0.0102105   0.153222   0 255   0
   0.137978 -0.00316449    0.153537   0 255   0
   0.134929 0.000357588    0.153726   0 255   0
  0.131691 0.00385534   0.153956   0 255   0
  0.128286 0.00730828   0.154247   0 255   0
0.124775 0.010696 0.154616   0 255   0
 0.121223 0.0139975  0.155081   0 255   0
  0.11765 0.0171902  0.155644   0 255   0
  0.11402 0.0202521  0.156293   0 255   0
  0.10642 0.0259213  0.157764   0 255   0
 0.102468 0.0285154  0.158554   0 255   0
0.0984816 0.0309425  0.159373   0 255   0
0.0945004 0.0331888  0.160223   0 255   0
0.0905346 0.0352313  0.161106   0 255   0
0.0865764 0.0370443  0.162022   0 255   0
0.0826179 0.0386053  0.162971   0 255   0
0.0786611 0.0399007  0.163954   0 255   0
0.0747167 0.0409284  0.164967   0 255   0
0.0708011  0.041701  0.166002   0 255   0
0.0669336 0.0422437  0.167048   0 255   0
0.0631341 0.0425891  0.168096   0 255   0
0.0594204 0.0427704  0.169133   0 255   0
0.0558049 0.0428176  0.170147   0 255   0
0.0522911 0.0427584  0.171131   0 255   0
0.0488721 0.0426198  0.172075   0 255   0
0.0455344 0.0424294   0.17297   0 255   0
0.0422659 0.0422121  0.173806   0 255   0
0.0390649  0.041988  0.174578   0 255   0
0.0359439 0.0417715  0.175284   0 255   0
0.0329241  0.041574  0.175928   0 255   0
0.0300279 0.0414072  0.176513   0 255   0
0.0272736 0.0412818  0.177042   0 255   0
0.0246751 0.0412009  0.177521   0 255   0
0.0222417 0.0411523  0.177957   0 255   0
0.0199788 0.0411093  0.178363   0 255   0
0.0178904 0.0410426  0.178754   0 255   0
0.0159817 0.0409346  0.179147   0 255   0
0.0142599 0.0407855  0.179556   0 255   0
0.0127317 0.0406073  0.179984   0 255   0
0.0114003 0.0404149  0.180423   0 255   0
0.0102653 0.0402205  0.180852   0 255   0
0.00932966  0.0400347   0.181246   0 255   0
0.00860775  0.0398695   0.181589   0 255   0
0.00812648  0.0397353   0.181876   0 255   0
0.00791576  0.0396327   0.182116   0 255   0
0.00799803  0.0395456   0.182322   0 255   0
0.00838208  0.0394453   0.182507   0 255   0
0.00906198  0.0393024   0.182677   0 255   0
0.0100174 0.0390996  0.182835   0 255   0
0.0112183 0.0388381  0.182974   0 255   0
0.0126358 0.0385326  0.183084   0 255   0
0.0142567 0.0381987  0.183166   0 255   0
0.0160887 0.0378473  0.183226   0 255   0
0.0181504 0.0374915  0.183278   0 255   0
0.0204587 0.0371535  0.183327   0 255   0
0.0230196 0.0368636  0.183377   0 255   0
0.0258244  0.036649   0.18342   0 255   0
0.0288475 0.0365225  0.183444   0 255   0
0.0320518 0.0364801  0.183428   0 255   0
 0.035406 0.0365093  0.183359   0 255   0
0.0389042 0.0366003  0.183237   0 255   0
 0.042569 0.0367502  0.183079   0 255   0
0.0464312 0.0369573  0.182903   0 255   0
0.0505037  0.037214  0.182712   0 255   0
0.0547708 0.0375057  0.182496   0 255   0
0.0592003 0.0378178  0.182236   0 255   0
0.0637606 0.0381433  0.181916   0 255   0
0.0684301 0.0384851  0.181526   0 255   0
0.0732001 0.0388494  0.181064   0 255   0
0.0780773 0.0392408  0.180537   0 255   0
0.0830779 0.0396593  0.179957   0 255   0
0.0882134 0.0401004  0.179332   0 255   0
0.0546003  0.054918  0.181194   0 255   0
0.0594324 0.0549612  0.180065   0 255   0
0.0644314 0.0550341  0.178999   0 255   0
0.0695734 0.0551088  0.177981   0 255   0
0.0748367 0.0551703  0.177004   0 255   0
0.0802054 0.0552263   0.17606   0 255   0
0.0856643 0.0552925  0.175148   0 255   0
0.0911913 0.0553714  0.174267   0 255   0
0.0967563 0.0554411  0.173415   0 255   0
 0.102336 0.0554705   0.17259   0 255   0
 0.107931 0.0554406  0.171797   0 255   0
 0.113574 0.0553594  0.171044   0 255   0
 0.119294 0.0552536  0.170331   0 255   0
 0.125085 0.0551483  0.169648   0 255   0
 0.130888 0.0550519  0.168972   0 255   0
 0.136624 0.0549609  0.168281   0 255   0
  0.14224 0.0548715  0.167559   0 255   0
 0.147731 0.0547892  0.166805   0 255   0
 0.153116 0.0547284  0.166025   0 255   0
 0.158392 0.0547029  0.165221   0 255   0
0.163517 0.054714 0.164389   0 255   0
 0.168435 0.0547513  0.163522   0 255   0
 0.173111 0.0547999  0.162611   0 255   0
 0.177556 0.0548481  0.161644   0 255   0
 0.181796 0.0548973   0.16061   0 255   0
 0.185845 0.0549704  0.159499   0 255   0
 0.189683 0.0551092  0.158312   0 255   0
 0.193281 0.0553493  0.157056   0 255   0
 0.196637 0.0556906  0.155747   0 255   0
  0.19979 0.0560862  0.154403   0 255   0
 0.205718 0.0567993  0.151681   0 255   0
 0.208566 0.0570792  0.150348   0 255   0
 0.211351 0.0573431  0.149076   0 255   0
 0.214085 0.0576127  0.147889   0 255   0
 0.216791 0.0578757  0.146803   0 255   0
 0.219502 0.0581068   0.14582   0 255   0
0.222235 0.058304 0.144939   0 255   0
 0.224988 0.0585053  0.144156   0 255   0
 0.230422 0.0590763  0.142854   0 255   0
 0.233004 0.0594186  0.142311   0 255   0
  0.23544 0.0597235  0.141821   0 255   0
 0.237724 0.0599575   0.14137   0 255   0
 0.239892 0.0601393  0.140949   0 255   0
 0.244018 0.0604999  0.140204   0 255   0
 0.245948 0.0606817   0.13992   0 255   0
 0.247713 0.0608177   0.13973   0 255   0
  0.24926 0.0608859  0.139644   0 255   0
 0.250572 0.0609019  0.139645   0 255   0
 0.251644 0.0609005    0.1397   0 255   0
 0.252454 0.0609067  0.139779   0 255   0
 0.252956 0.0609185  0.139868   0 255   0
 0.252872 0.0608942  0.140068   0 255   0
   0.2523 0.0608488  0.140184   0 255   0
 0.251435 0.0607934  0.140311   0 255   0
  0.25032 0.0607311   0.14046   0 255   0
 0.248971 0.0606508  0.140646   0 255   0
  0.24739 0.0605374  0.140886   0 255   0
0.245596 0.060386 0.141184   0 255   0
 0.243629 0.0602081  0.141529   0 255   0
 0.239331 0.0598377  0.142299   0 255   0
 0.236999 0.0596507  0.142723   0 255   0
 0.234504 0.0594454   0.14319   0 255   0
 0.231835 0.0592072  0.143701   0 255   0
  0.22902 0.0589279  0.144244   0 255   0
 0.226097 0.0586044  0.144802   0 255   0
 0.223069 0.0582346  0.145369   0 255   0
 0.219886 0.0578185  0.145954   0 255   0
 0.212833 0.0568861  0.147208   0 255   0
 0.208978 0.0564171  0.147849   0 255   0
 0.204986 0.0559878  0.148466   0 255   0
 0.200897 0.0556244  0.149047   0 255   0
0.196699 0.055342 0.149604   0 255   0
 0.192351 0.0551442  0.150157   0 255   0
 0.187844 0.0550208  0.150717   0 255   0
 0.183223 0.0549484  0.151279   0 255   0
 0.173863 0.0548681  0.152394   0 255   0
 0.169134 0.0548586  0.152962   0 255   0
 0.164315 0.0548818  0.153558   0 255   0
 0.159376 0.0549193  0.154192   0 255   0
 0.154327 0.0549185   0.15486   0 255   0
 0.149213 0.0548289  0.155548   0 255   0
 0.144078 0.0546471  0.156245   0 255   0
 0.138945 0.0544321  0.156944   0 255   0
 0.128712 0.0541663  0.158323   0 255   0
 0.123618 0.0541115  0.158987   0 255   0
 0.118555 0.0540305  0.159622   0 255   0
0.113552 0.053895 0.160224   0 255   0
 0.108654 0.0537468  0.160795   0 255   0
 0.103904 0.0536554  0.161341   0 255   0
0.0993173 0.0536524  0.161865   0 255   0
0.0948677  0.053702  0.162368   0 255   0
0.0862446 0.0537435  0.163279   0 255   0
0.0820757 0.0537443  0.163672   0 255   0
0.0780564 0.0538093  0.164026   0 255   0
0.0742299 0.0539767  0.164345   0 255   0
0.0706178 0.0542284  0.164639   0 255   0
0.0672151 0.0545124  0.164914   0 255   0
0.0639918 0.0547807   0.16518   0 255   0
0.0608989 0.0550129  0.165441   0 255   0
0.0549298 0.0553719   0.16594   0 255   0
0.0520256 0.0554932   0.16617   0 255   0
0.0491975 0.0555608  0.166384   0 255   0
0.0464767 0.0555694   0.16658   0 255   0
0.0438925 0.0555279  0.166755   0 255   0
0.0414642  0.055456  0.166908   0 255   0
0.0391949 0.0553767  0.167031   0 255   0
0.0370733 0.0553094  0.167113   0 255   0
0.0332475 0.0552418  0.167117   0 255   0
0.0315862 0.0552235   0.16704   0 255   0
0.0301491 0.0551864  0.166923   0 255   0
0.0289663 0.0551093  0.166777   0 255   0
0.0280411 0.0549805  0.166609   0 255   0
 0.027366 0.0547956  0.166425   0 255   0
0.0269466 0.0545522  0.166237   0 255   0
0.0268136  0.054246  0.166071   0 255   0
0.0270115 0.0538722   0.16596   0 255   0
0.0275779  0.053428   0.16593   0 255   0
0.0285289  0.052916  0.165998   0 255   0
0.0298576 0.0523451  0.166162   0 255   0
0.0315367 0.0517327  0.166404   0 255   0
0.0335264 0.0511039  0.166693   0 255   0
0.0357857 0.0504863  0.166992   0 255   0
0.0382845 0.0499034   0.16727   0 255   0
0.0410094 0.0493685  0.167504   0 255   0
0.0439557 0.0488821  0.167685   0 255   0
0.0471135 0.0484311  0.167812   0 255   0
0.0504583 0.0479927  0.167886   0 255   0
0.0539601 0.0475462  0.167912   0 255   0
0.0575974 0.0470867  0.167899   0 255   0
0.0613643 0.0466313  0.167861   0 255   0
 0.174931 0.0615192  0.163752   0 255   0
0.172508 0.061281 0.165039   0 255   0
 0.170071 0.0610536  0.166314   0 255   0
 0.167674 0.0608582  0.167548   0 255   0
 0.163283 0.0606289  0.169798   0 255   0
 0.161309 0.0605854  0.170804   0 255   0
 0.159414 0.0605632  0.171744   0 255   0
 0.157563 0.0605513  0.172629   0 255   0
 0.155779 0.0605566  0.173466   0 255   0
   0.1526 0.0606891  0.175001   0 255   0
 0.151215 0.0608395  0.175702   0 255   0
 0.149905 0.0610451  0.176351   0 255   0
 0.148627 0.0612955  0.176936   0 255   0
 0.147374 0.0615767  0.177443   0 255   0
 0.146165 0.0618734  0.177861   0 255   0
 0.145018 0.0621712  0.178187   0 255   0
0.143935 0.062458 0.178429   0 255   0
 0.141935 0.0629631  0.178707   0 255   0
 0.141022 0.0631725  0.178776   0 255   0
 0.140185 0.0633512   0.17882   0 255   0
 0.139434 0.0634986  0.178853   0 255   0
 0.138771 0.0636135  0.178885   0 255   0
 0.138188 0.0636922  0.178922   0 255   0
 0.137674 0.0637272  0.178968   0 255   0
 0.137223 0.0637072  0.179022   0 255   0
 0.136827 0.0636241  0.179081   0 255   0
 0.136478 0.0634796  0.179139   0 255   0
 0.136166 0.0632884  0.179188   0 255   0
 0.135883 0.0630702  0.179222   0 255   0
0.135621 0.062839 0.179235   0 255   0
 0.133702 0.0601675  0.178428   0 255   0
 0.133587 0.0600754  0.178439   0 255   0
 0.133485 0.0599862  0.178489   0 255   0
 0.133404 0.0599233   0.17856   0 255   0
0.133342 0.059906  0.17862   0 255   0
 0.133283 0.0599458  0.178612   0 255   0
 0.133195 0.0600531  0.178454   0 255   0
 0.133043 0.0602492   0.17803   0 255   0
0.132785 0.060574 0.177189   0 255   0
 0.132353 0.0610799  0.175769   0 255   0
 0.131656 0.0618119   0.17367   0 255   0
 0.130611 0.0627881   0.17092   0 255   0
 0.129281 0.0639821  0.167759   0 255   0
 0.13382 0.060244  0.17846   0 255   0
 0.133933 0.0602997  0.178529   0 255   0
0.134125 0.060357 0.178738   0 255   0
 0.134204 0.0603519   0.17885   0 255   0
0.134273 0.060318 0.178954   0 255   0
0.134331 0.060266 0.179041   0 255   0
 0.134376 0.0602255  0.179105   0 255   0
 0.134403 0.0602327  0.179145   0 255   0
 0.134414 0.0603123  0.179162   0 255   0
0.134421 0.060465  0.17916   0 255   0
 0.134436 0.0606735  0.179148   0 255   0
 0.134474 0.0609174  0.179136   0 255   0
 0.134543 0.0611846   0.17913   0 255   0
 0.134786 0.0617636  0.179154   0 255   0
 0.134957 0.0620571   0.17918   0 255   0
 0.135378 0.0625966  0.179228   0 255   0
 0.177345 0.0617557  0.162477   0 255   0
 0.179804 0.0619817   0.16123   0 255   0
 0.182367 0.0621836  0.160022   0 255   0
  0.18506 0.0623397  0.158869   0 255   0
 0.187881 0.0624264  0.157788   0 255   0
 0.190809 0.0624303  0.156789   0 255   0
  0.19381 0.0623564  0.155876   0 255   0
 0.196843 0.0622243  0.155037   0 255   0
 0.199854 0.0620554  0.154253   0 255   0
 0.202786 0.0618627  0.153505   0 255   0
 0.205588 0.0616537  0.152773   0 255   0
 0.208227 0.0614371  0.152045   0 255   0
0.210698 0.061227 0.151317   0 255   0
 0.213015 0.0610358  0.150597   0 255   0
 0.215201 0.0608654  0.149898   0 255   0
0.217278 0.060703 0.149242   0 255   0
 0.221134 0.0603431  0.148141   0 255   0
 0.222906 0.0601521  0.147723   0 255   0
 0.224555 0.0599812  0.147398   0 255   0
 0.226061 0.0598478  0.147164   0 255   0
 0.227405 0.0597526  0.147011   0 255   0
 0.228568 0.0596843   0.14693   0 255   0
 0.229536 0.0596301  0.146908   0 255   0
 0.230297 0.0595856  0.146936   0 255   0
0.231141 0.059531 0.147107   0 255   0
 0.231193 0.0595151  0.147237   0 255   0
 0.230974 0.0594933  0.147389   0 255   0
0.230475 0.059452 0.147557   0 255   0
 0.229693 0.0593771  0.147732   0 255   0
 0.228629 0.0592545  0.147909   0 255   0
 0.227273 0.0590708  0.148089   0 255   0
 0.225602 0.0588149  0.148287   0 255   0
 0.221281 0.0580916  0.148781   0 255   0
 0.218714 0.0576694  0.149081   0 255   0
 0.215982 0.0572499  0.149407   0 255   0
 0.21314 0.056841 0.149755   0 255   0
 0.210189 0.0564139  0.150135   0 255   0
 0.207098 0.0559263  0.150554   0 255   0
 0.203849 0.0553588  0.151013   0 255   0
 0.200477 0.0547331  0.151499   0 255   0
0.193549 0.053455 0.152524   0 255   0
0.189966 0.052813 0.153072   0 255   0
 0.186217 0.0521392  0.153659   0 255   0
 0.182273 0.0514334  0.154288   0 255   0
 0.178196 0.0507384  0.154957   0 255   0
 0.174094 0.0501143  0.155666   0 255   0
 0.170035 0.0495974  0.156417   0 255   0
 0.165995 0.0491772  0.157216   0 255   0
  0.15767 0.0484918  0.158927   0 255   0
0.153344 0.048191 0.159809   0 255   0
 0.144586 0.0476687  0.161552   0 255   0
 0.140144 0.0474259  0.162387   0 255   0
 0.135571 0.0471709  0.163172   0 255   0
 0.130818 0.0468937  0.163888   0 255   0
 0.125903 0.0465941  0.164524   0 255   0
 0.120897 0.0462798  0.165086   0 255   0
 0.115869 0.0459644  0.165581   0 255   0
 0.110855 0.0456681  0.166013   0 255   0
 0.105861 0.0454144  0.166381   0 255   0
   0.1009 0.0452231  0.166687   0 255   0
 0.096006 0.0451037  0.166937   0 255   0
0.0912223 0.0450569  0.167141   0 255   0
0.0865794 0.0450794  0.167312   0 255   0
0.0820797  0.045169  0.167456   0 255   0
0.0777064 0.0453254  0.167574   0 255   0
0.0734442 0.0455499  0.167668   0 255   0
 0.069293 0.0458449  0.167744   0 255   0
0.0652631 0.0462091  0.167808   0 255   0
0.0499523 0.0549215  0.182392   0 255   0
0.0454916 0.0549606  0.183657   0 255   0
0.0412076 0.0550047  0.184975   0 255   0
0.0370809 0.0550257  0.186326   0 255   0
0.0330894 0.0550177  0.187689   0 255   0
0.0292196 0.0549934  0.189046   0 255   0
0.0254792 0.0549692  0.190387   0 255   0
0.0219031 0.0549544  0.191722   0 255   0
0.0185401 0.0549539  0.193067   0 255   0
0.0154291 0.0549801  0.194437   0 255   0
0.0125814 0.0550608   0.19583   0 255   0
0.00998463  0.0552315   0.197232   0 255   0
0.0076168 0.0555218  0.198611   0 255   0
0.00545884  0.0559432   0.199933   0 255   0
0.00349832  0.0564878   0.201165   0 255   0
0.00172768    0.05713   0.202282   0 255   0
0.000142083   0.0578303    0.203267   0 255   0
-0.00126437   0.0585417    0.204121   0 255   0
-0.00250358   0.0592182    0.204852   0 255   0
-0.00359554   0.0598232    0.205477   0 255   0
-0.00455754   0.0603301    0.206019   0 255   0
-0.00538666   0.0607199    0.206503   0 255   0
-0.00604904   0.0609798    0.206965   0 255   0
-0.00649344   0.0611087    0.207429   0 255   0
-0.00667996   0.0611214    0.207897   0 255   0
-0.00660151   0.0610473    0.208343   0 255   0
-0.00627223   0.0609203    0.208728   0 255   0
-0.00569894   0.0607656    0.209024   0 255   0
-0.00486236   0.0605885    0.209232   0 255   0
-0.00373374   0.0603763    0.209371   0 255   0
-0.00230789   0.0601121    0.209461   0 255   0
-0.0006251  0.0597863   0.209504   0 255   0
0.0012475 0.0593959  0.209488   0 255   0
0.00325558  0.0589375   0.209405   0 255   0
0.00538627   0.058403   0.209262   0 255   0
0.00765458  0.0577868   0.209068   0 255   0
0.0100668 0.0570993  0.208824   0 255   0
0.0125941 0.0563738  0.208509   0 255   0
0.0151876 0.0556516  0.208093   0 255   0
 0.017817 0.0549578  0.207561   0 255   0
0.0204957 0.0542875  0.206916   0 255   0
0.0232638 0.0536203  0.206175   0 255   0
0.0261456 0.0529427  0.205348   0 255   0
0.0291196 0.0522646  0.204423   0 255   0
0.0351605 0.0510753  0.202196   0 255   0
 0.038213 0.0506827  0.200882   0 255   0
0.0413481 0.0504956  0.199456   0 255   0
0.0446152 0.0505353  0.197937   0 255   0
0.0480228  0.050778  0.196346   0 255   0
0.0515381 0.0511615  0.194706   0 255   0
0.0551018 0.0516159  0.193045   0 255   0
0.0586464  0.052093  0.191396   0 255   0
0.0655574 0.0529709  0.188281   0 255   0
0.0690316  0.053263  0.186883   0 255   0
0.0726598 0.0533854  0.185601   0 255   0
0.0764648 0.0533385  0.184396   0 255   0
0.0803136 0.0531893  0.183206   0 255   0
0.0840019 0.0530352  0.181968   0 255   0
0.0874175 0.0529374  0.180663   0 255   0
0.0906556 0.0528747  0.179323   0 255   0
0.0975289 0.0526003  0.176733   0 255   0
 0.101432 0.0523363  0.175543   0 255   0
  0.10557 0.0520164  0.174446   0 255   0
 0.109802 0.0516716  0.173442   0 255   0
 0.114027 0.0513107  0.172516   0 255   0
 0.118213 0.0509267  0.171643   0 255   0
 0.122392 0.0505211  0.170791   0 255   0
 0.126635 0.0501236  0.169931   0 255   0
 0.135547 0.0494957  0.168114   0 255   0
  0.14015 0.0492519  0.167169   0 255   0
 0.144698 0.0489868  0.166237   0 255   0
 0.149109 0.0486596  0.165352   0 255   0
 0.153417 0.0482812  0.164532   0 255   0
0.157729 0.047906 0.163772   0 255   0
 0.162131 0.0475889  0.163048   0 255   0
 0.166626 0.0473411  0.162344   0 255   0
 0.175624 0.0469474  0.160977   0 255   0
 0.180032 0.0467884  0.160317   0 255   0
 0.184391 0.0466998  0.159675   0 255   0
 0.188727 0.0467191  0.159053   0 255   0
 0.193053 0.0468507  0.158459   0 255   0
 0.197364 0.0470677  0.157904   0 255   0
 0.201648 0.0473349  0.157399   0 255   0
 0.205902 0.0476299  0.156949   0 255   0
 0.214331 0.0482825  0.156222   0 255   0
 0.218528 0.0486335  0.155929   0 255   0
  0.22272 0.0489876  0.155668   0 255   0
 0.226893 0.0493316  0.155435   0 255   0
 0.231004 0.0496542  0.155232   0 255   0
    0.235 0.0499476  0.155069   0 255   0
 0.238843 0.0502106  0.154951   0 255   0
 0.242528 0.0504488   0.15487   0 255   0
   0.2495 0.0508703  0.154758   0 255   0
 0.252784 0.0510412  0.154719   0 255   0
 0.255888 0.0511631  0.154706   0 255   0
  0.25878 0.0512225  0.154726   0 255   0
  0.26145 0.0512194  0.154774   0 255   0
 0.263901 0.0511685  0.154831   0 255   0
 0.266128 0.0510922  0.154881   0 255   0
 0.268098 0.0510126  0.154921   0 255   0
 0.271087 0.0509045  0.154993   0 255   0
 0.272045 0.0508851  0.155038   0 255   0
 0.272649 0.0508835  0.155092   0 255   0
  0.27292 0.0508968  0.155156   0 255   0
 0.272885 0.0509308  0.155234   0 255   0
0.272569 0.050996 0.155326   0 255   0
 0.272003 0.0510996  0.155433   0 255   0
 0.271216 0.0512382   0.15555   0 255   0
 0.269067 0.0515682  0.155791   0 255   0
0.267698 0.051733  0.15592   0 255   0
 0.266105 0.0518887  0.156065   0 255   0
 0.264284 0.0520371  0.156229   0 255   0
 0.262269 0.0521851  0.156402   0 255   0
 0.260113 0.0523395  0.156571   0 255   0
0.257852 0.052501 0.156734   0 255   0
 0.255473 0.0526599  0.156904   0 255   0
 0.250188 0.0529057  0.157359   0 255   0
 0.247256 0.0529656   0.15767   0 255   0
 0.244177 0.0529744  0.158033   0 255   0
 0.240989 0.0529293  0.158442   0 255   0
 0.237693 0.0528297  0.158894   0 255   0
 0.234266 0.0526808  0.159382   0 255   0
 0.230689 0.0524956  0.159892   0 255   0
 0.226971 0.0522934  0.160405   0 255   0
 0.219228 0.0519035   0.16137   0 255   0
0.215219 0.051717 0.161815   0 255   0
 0.211094 0.0515188   0.16225   0 255   0
 0.206851 0.0513011  0.162693   0 255   0
 0.202527 0.0510728  0.163156   0 255   0
 0.198187 0.0508496  0.163647   0 255   0
 0.193877 0.0506336  0.164172   0 255   0
 0.189592 0.0504011  0.164731   0 255   0
0.180935  0.04976 0.165912   0 255   0
 0.176509 0.0493448  0.166509   0 255   0
 0.172031 0.0489062  0.167098   0 255   0
 0.167519 0.0484767  0.167675   0 255   0
 0.162972 0.0480678  0.168241   0 255   0
0.158377 0.047676 0.168796   0 255   0
 0.153725 0.0472994  0.169343   0 255   0
 0.149031 0.0469481  0.169883   0 255   0
 0.139629 0.0463849  0.170966   0 255   0
 0.134943 0.0461897  0.171506   0 255   0
 0.130257 0.0460502  0.172035   0 255   0
 0.125577 0.0459596  0.172549   0 255   0
 0.120949 0.0459086  0.173048   0 255   0
 0.116427 0.0458852  0.173539   0 255   0
 0.112028 0.0458758  0.174027   0 255   0
 0.107699 0.0458671  0.174507   0 255   0
 0.098928 0.0458075  0.175399   0 255   0
0.0944596 0.0457369  0.175814   0 255   0
0.0900307 0.0456247  0.176239   0 255   0
0.0857122 0.0454619  0.176699   0 255   0
0.0815049 0.0452452  0.177202   0 255   0
0.0773584 0.0449819  0.177744   0 255   0
0.0732341 0.0446925  0.178318   0 255   0
0.0691529 0.0444098  0.178934   0 255   0
0.0613783 0.0440192  0.180365   0 255   0
0.0577591 0.0439849  0.181201   0 255   0
0.0542956 0.0440921  0.182103   0 255   0
 0.050951 0.0443436  0.183047   0 255   0
0.0477062 0.0447206   0.18401   0 255   0
0.0445597 0.0451851  0.184976   0 255   0
0.0415102 0.0456863  0.185928   0 255   0
0.0385468 0.0461739  0.186847   0 255   0
0.0328388 0.0470227  0.188517   0 255   0
0.0301187 0.0474204  0.189256   0 255   0
0.0275348  0.047851  0.189937   0 255   0
0.0251248 0.0483333  0.190569   0 255   0
0.0229117 0.0488467  0.191151   0 255   0
0.0209008 0.0493426  0.191678   0 255   0
0.0190877 0.0497768  0.192137   0 255   0
0.0174664 0.0501342  0.192517   0 255   0
0.0148111  0.050645  0.193026   0 255   0
0.0138162 0.0507877   0.19317   0 255   0
0.0130888 0.0508264  0.193265   0 255   0
0.0126613 0.0507598  0.193329   0 255   0
0.0125534 0.0506306  0.193372   0 255   0
0.0127737 0.0505077  0.193393   0 255   0
0.0133296 0.0504441  0.193384   0 255   0
 0.014235 0.0504449  0.193339   0 255   0
0.0171214 0.0505266  0.193092   0 255   0
  0.01905 0.0505915   0.19285   0 255   0
0.0235867 0.0508948  0.192042   0 255   0
0.0261199 0.0511281    0.1915   0 255   0
0.0288299 0.0513514  0.190915   0 255   0
0.0317228 0.0515079  0.190318   0 255   0
0.0347797 0.0515674  0.189723   0 255   0
0.0379588 0.0515294   0.18912   0 255   0
0.0412158 0.0514106  0.188488   0 255   0
0.0445233 0.0512327  0.187806   0 255   0
0.0512944 0.0507919  0.186231   0 255   0
 0.054809 0.0505811  0.185332   0 255   0
0.0584618 0.0504098  0.184369   0 255   0
0.0622842 0.0502894  0.183354   0 255   0
0.0662845 0.0502117  0.182297   0 255   0
0.0704482 0.0501585  0.181203   0 255   0
0.0747454 0.0501227  0.180077   0 255   0
0.0791415 0.0501245  0.178918   0 255   0
0.0881222 0.0503613  0.176503   0 255   0
0.0926911 0.0505917  0.175245   0 255   0
0.0973268 0.0508412  0.173951   0 255   0
 0.102037 0.0510726  0.172622   0 255   0
 0.106806 0.0512851  0.171261   0 255   0
 0.111609 0.0515071  0.169884   0 255   0
 0.116446 0.0517699  0.168508   0 255   0
 0.121365 0.0520865  0.167154   0 255   0
 0.126439 0.0524488  0.165832   0 255   0
0.131706 0.052835 0.164547   0 255   0
 0.137137 0.0532161  0.163302   0 255   0
 0.142656 0.0535604  0.162107   0 255   0
 0.148195 0.0538383  0.160973   0 255   0
 0.153746 0.0540278  0.159909   0 255   0
0.159356 0.054117 0.158917   0 255   0
 0.165082 0.0541025  0.157991   0 255   0
 0.170956 0.0539893   0.15713   0 255   0
 0.176966 0.0537899   0.15633   0 255   0
 0.183064 0.0535243  0.155594   0 255   0
 0.189167 0.0532182  0.154917   0 255   0
0.195175 0.052901 0.154289   0 255   0
 0.200982 0.0526039    0.1537   0 255   0
 0.206502 0.0523576  0.153134   0 255   0
0.211675 0.052188 0.152584   0 255   0
 0.216469 0.0521096  0.152053   0 255   0
 0.220879 0.0521202  0.151559   0 255   0
 0.224923 0.0522045  0.151132   0 255   0
 0.228654 0.0523428  0.150799   0 255   0
 0.232158 0.0525191   0.15057   0 255   0
 0.235516 0.0527244  0.150439   0 255   0
 0.238759 0.0529527   0.15039   0 255   0
  0.24184 0.0531937  0.150415   0 255   0
  0.24466 0.0534323   0.15051   0 255   0
 0.247125 0.0536553  0.150662   0 255   0
   0.2492 0.0538556  0.150842   0 255   0
 0.250904 0.0540261  0.151016   0 255   0
 0.252269 0.0541501  0.151159   0 255   0
 0.253307 0.0541993  0.151272   0 255   0
 0.254004 0.0541422  0.151373   0 255   0
 0.254356 0.0539591  0.151483   0 255   0
 0.254392 0.0536552   0.15161   0 255   0
 0.254163 0.0532616  0.151751   0 255   0
 0.253713 0.0528204  0.151901   0 255   0
  0.25306 0.0523681   0.15206   0 255   0
 0.252201 0.0519299  0.152234   0 255   0
 0.251133 0.0515228  0.152428   0 255   0
 0.249879 0.0511567  0.152638   0 255   0
 0.248477 0.0508317  0.152858   0 255   0
 0.246959 0.0505365  0.153085   0 255   0
 0.245331 0.0502494  0.153324   0 255   0
  0.24357 0.0499469  0.153589   0 255   0
 0.241653 0.0496176  0.153891   0 255   0
 0.239565 0.0492704  0.154235   0 255   0
 0.237302 0.0489268  0.154622   0 255   0
 0.234853 0.0486068  0.155051   0 255   0
 0.232195 0.0483178  0.155521   0 255   0
 0.229295 0.0480577   0.15603   0 255   0
 0.226144 0.0478278  0.156572   0 255   0
  0.22277 0.0476428  0.157137   0 255   0
 0.219227 0.0475245  0.157716   0 255   0
 0.215559 0.0474825  0.158306   0 255   0
 0.211773 0.0475015  0.158907   0 255   0
 0.207842 0.0475503  0.159527   0 255   0
 0.203739 0.0476011  0.160171   0 255   0
0.199467 0.047641 0.160843   0 255   0
 0.195055 0.0476683  0.161545   0 255   0
 0.190543 0.0476831   0.16228   0 255   0
 0.185962 0.0476803  0.163051   0 255   0
0.181327 0.047646 0.163859   0 255   0
 0.176628 0.0475592  0.164701   0 255   0
 0.171831 0.0473948  0.165573   0 255   0
 0.166902 0.0471333  0.166464   0 255   0
 0.161833 0.0467723  0.167368   0 255   0
 0.156673 0.0463324  0.168281   0 255   0
0.151498 0.045849 0.169205   0 255   0
  0.14637 0.0453529  0.170145   0 255   0
 0.141288 0.0448565  0.171098   0 255   0
 0.136202 0.0443582  0.172053   0 255   0
 0.131052 0.0438559  0.172993   0 255   0
 0.125812 0.0433553  0.173906   0 255   0
 0.120489 0.0428665  0.174788   0 255   0
 0.115106 0.0423947  0.175637   0 255   0
 0.109687 0.0419352  0.176453   0 255   0
 0.104253 0.0414784  0.177231   0 255   0
0.0988365 0.0410183   0.17797   0 255   0
0.0934762 0.0405565   0.17867   0 255   0
  0.142622 0.00661081   0.158721   0 255   0
  0.142698 0.00700865   0.158858   0 255   0
  0.142826 0.00758393   0.158994   0 255   0
     0.143 0.00832696   0.159132   0 255   0
  0.143206 0.00921712   0.159284   0 255   0
 0.143426 0.0102412  0.159466   0 255   0
 0.143644 0.0113989  0.159696   0 255   0
 0.143855 0.0126937  0.159993   0 255   0
 0.144063 0.0141218  0.160366   0 255   0
 0.144282 0.0156699  0.160821   0 255   0
 0.144528 0.0173196  0.161356   0 255   0
 0.144807 0.0190548  0.161962   0 255   0
 0.145117 0.0208652  0.162627   0 255   0
 0.145441 0.0227477  0.163331   0 255   0
 0.145756 0.0247046  0.164051   0 255   0
 0.146033 0.0267403  0.164761   0 255   0
 0.146241 0.0288555  0.165441   0 255   0
 0.146342 0.0310426  0.166077   0 255   0
 0.146302 0.0332849  0.166669   0 255   0
 0.146105 0.0355606  0.167228   0 255   0
 0.145758 0.0378479  0.167775   0 255   0
 0.145298 0.0401272  0.168334   0 255   0
 0.144769 0.0423793  0.168928   0 255   0
  0.14421 0.0445838  0.169572   0 255   0
 0.143642 0.0467243  0.170268   0 255   0
 0.143067 0.0488008  0.171009   0 255   0
 0.142466 0.0508403  0.171785   0 255   0
 0.141809 0.0528906  0.172587   0 255   0
 0.141075 0.0549951  0.173414   0 255   0
0.140277 0.057167 0.174278   0 255   0
 0.139456 0.0593887  0.175204   0 255   0
 0.138661 0.0616395  0.176232   0 255   0
0.137919 0.063926 0.177397   0 255   0
  0.13723 0.0662905  0.178729   0 255   0
 0.136584 0.0687931  0.180239   0 255   0
 0.135985 0.0714891   0.18192   0 255   0
 0.135455 0.0744158  0.183752   0 255   0
 0.135024 0.0775915  0.185704   0 255   0
 0.134714 0.0810161  0.187743   0 255   0
 0.134534 0.0846753  0.189837   0 255   0
 0.134479 0.0885461  0.191955   0 255   0
 0.134532 0.0926069  0.194071   0 255   0
 0.134669 0.0968418  0.196159   0 255   0
 0.13487 0.101239 0.198198   0 255   0
0.135132  0.10579 0.200172   0 255   0
0.135463 0.110483  0.20207   0 255   0
0.135875 0.115305  0.20389   0 255   0
0.136364 0.120234 0.205635   0 255   0
0.136911  0.12524 0.207314   0 255   0
0.137497 0.130289 0.208937   0 255   0
0.138117 0.135349 0.210516   0 255   0
0.138779 0.140388  0.21206   0 255   0
 0.13949 0.145366 0.213575   0 255   0
0.140238 0.150234  0.21507   0 255   0
0.140993 0.154929 0.216552   0 255   0
0.141723 0.159383 0.218031   0 255   0
0.142417 0.163532  0.21951   0 255   0
0.143085 0.167317 0.220991   0 255   0
0.143751 0.170697 0.222464   0 255   0
0.144424 0.173647 0.223908   0 255   0
0.145103 0.176162  0.22529   0 255   0
0.145775 0.178251 0.226566   0 255   0
0.146433 0.179931 0.227687   0 255   0
0.147072  0.18122 0.228603   0 255   0
0.147691 0.182131 0.229272   0 255   0
0.148285 0.182675 0.229661   0 255   0
0.148844 0.182852 0.229751   0 255   0
0.149356 0.182655  0.22954   0 255   0
0.149806 0.182072 0.229042   0 255   0
0.150181 0.181092 0.228277   0 255   0
0.150467 0.179706  0.22727   0 255   0
0.150655 0.177908 0.226044   0 255   0
0.150742 0.175703 0.224618   0 255   0
0.150736 0.173114 0.222998   0 255   0
 0.15065 0.170189 0.221185   0 255   0
0.150507 0.166993 0.219172   0 255   0
0.150325 0.163586 0.216958   0 255   0
0.150106 0.160003 0.214555   0 255   0
0.149842 0.156249 0.211983   0 255   0
 0.14953 0.152331 0.209266   0 255   0
0.149186 0.148285 0.206427   0 255   0
0.148847 0.144178 0.203484   0 255   0
0.148541 0.140069 0.200461   0 255   0
0.148257 0.135974 0.197386   0 255   0
0.147947 0.131862 0.194292   0 255   0
0.147569 0.127695 0.191206   0 255   0
0.147136 0.123481 0.188148   0 255   0
0.146717 0.119274 0.185134   0 255   0
 0.14638 0.115132 0.182172   0 255   0
0.146127 0.111074 0.179274   0 255   0
0.145884 0.107067 0.176447   0 255   0
0.145564 0.103073 0.173698   0 255   0
 0.145142 0.0990939  0.171031   0 255   0
  0.14423 0.0913749  0.165993   0 255   0
 0.143834 0.0877111  0.163653   0 255   0
 0.143441 0.0841573  0.161452   0 255   0
 0.142989 0.0806751  0.159403   0 255   0
 0.142459 0.0772521   0.15751   0 255   0
 0.141887 0.0739105   0.15577   0 255   0
 0.141325 0.0706806   0.15417   0 255   0
0.140783 0.067572 0.152694   0 255   0
0.139579 0.061644 0.150042   0 255   0
 0.138838 0.0588011  0.148842   0 255   0
 0.138021 0.0560622  0.147723   0 255   0
 0.137169 0.0534556  0.146691   0 255   0
0.136307 0.050992 0.145757   0 255   0
 0.135433 0.0486596  0.144933   0 255   0
 0.134533 0.0464429  0.144234   0 255   0
 0.133609 0.0443447  0.143674   0 255   0
 0.131803 0.0406091  0.143014   0 255   0
  0.13097 0.0390143  0.142938   0 255   0
 0.130186 0.0375982  0.143046   0 255   0
 0.12944 0.036346 0.143351   0 255   0
0.128727  0.03525 0.143865   0 255   0
 0.128061 0.0343144  0.144594   0 255   0
 0.127455 0.0335552  0.145542   0 255   0
 0.126915 0.0329978  0.146705   0 255   0
 0.125994 0.0325683  0.149621   0 255   0
 0.125601 0.0326725  0.151323   0 255   0
 0.125253 0.0329194  0.153148   0 255   0
 0.124956 0.0332479  0.155072   0 255   0
 0.12471 0.033627 0.157084   0 255   0
 0.124511 0.0340634  0.159189   0 255   0
 0.124357 0.0345752  0.161405   0 255   0
 0.124254 0.0351603  0.163755   0 255   0
 0.124262 0.0364187  0.168916   0 255   0
0.124403  0.03703 0.171728   0 255   0
  0.12465 0.0376249  0.174669   0 255   0
  0.12501 0.0382245  0.177709   0 255   0
 0.125482 0.0388575  0.180815   0 255   0
0.126062 0.039549 0.183964   0 255   0
 0.126748 0.0403062  0.187145   0 255   0
 0.127543 0.0411042  0.190366   0 255   0
0.129468 0.042636 0.197022   0 255   0
0.130582 0.043342 0.200513   0 255   0
 0.131764 0.0440732  0.204147   0 255   0
 0.132988 0.0448951  0.207926   0 255   0
 0.134235 0.0458232  0.211833   0 255   0
 0.135497 0.0468116   0.21583   0 255   0
 0.136775 0.0477973   0.21987   0 255   0
 0.138079 0.0487516  0.223909   0 255   0
 0.140829 0.0506658  0.231867   0 255   0
 0.142277 0.0516778  0.235772   0 255   0
 0.143739 0.0527079  0.239637   0 255   0
 0.145175 0.0537048  0.243472   0 255   0
 0.146559 0.0546055  0.247273   0 255   0
  0.14788 0.0553537  0.251022   0 255   0
 0.149132 0.0559207  0.254688   0 255   0
0.150304 0.056325 0.258243   0 255   0
 0.152346 0.0568796  0.264883   0 255   0
 0.153209 0.0570917   0.26787   0 255   0
0.153984 0.057211 0.270538   0 255   0
 0.154679 0.0571806  0.272813   0 255   0
 0.155277 0.0569965  0.274645   0 255   0
0.155736 0.056717 0.276019   0 255   0
 0.156022 0.0564043  0.276941   0 255   0
 0.156132 0.0560567  0.277418   0 255   0
 0.155959 0.0549265  0.277066   0 255   0
  0.15573 0.0540011  0.276286   0 255   0
 0.15539 0.052851 0.275177   0 255   0
 0.154915 0.0515533  0.273808   0 255   0
 0.154295 0.0501845   0.27223   0 255   0
 0.153547 0.0487953  0.270476   0 255   0
 0.152696 0.0474214  0.268565   0 255   0
 0.151759 0.0461025  0.266513   0 255   0
 0.149618 0.0438148  0.262051   0 255   0
 0.148414 0.0429104  0.259655   0 255   0
 0.147142 0.0421728  0.257148   0 255   0
 0.145816 0.0415931   0.25453   0 255   0
 0.144435 0.0411712  0.251813   0 255   0
 0.142976 0.0409178  0.249024   0 255   0
 0.141421 0.0408392  0.246194   0 255   0
  0.13977 0.0409168  0.243347   0 255   0
 0.136296 0.0413411   0.23761   0 255   0
 0.134537 0.0415867  0.234697   0 255   0
 0.132785 0.0418185   0.23173   0 255   0
0.131048 0.042028 0.228687   0 255   0
 0.129336 0.0422065  0.225545   0 255   0
 0.127674 0.0423374  0.222284   0 255   0
  0.12609 0.0423976  0.218894   0 255   0
 0.124619 0.0423605  0.215379   0 255   0
 0.122128 0.0419184  0.208062   0 255   0
 0.121148 0.0415311  0.204331   0 255   0
 0.120358 0.0410928  0.200608   0 255   0
 0.119752 0.0406603   0.19693   0 255   0
 0.119317 0.0402673  0.193328   0 255   0
 0.119034 0.0399175  0.189825   0 255   0
 0.118879 0.0396092  0.186448   0 255   0
 0.118824 0.0393649  0.183233   0 255   0
  0.11891 0.0392633    0.1775   0 255   0
 0.119027 0.0394673  0.175094   0 255   0
 0.119203 0.0398181  0.173058   0 255   0
 0.119449 0.0402682  0.171426   0 255   0
  0.11977 0.0407779  0.170223   0 255   0
 0.120155 0.0413285  0.169469   0 255   0
 0.120584 0.0419157  0.169168   0 255   0
 0.121043 0.0425388  0.169315   0 255   0
 0.122017 0.0438732  0.170866   0 255   0
 0.122526 0.0445666  0.172204   0 255   0
 0.123053 0.0452639  0.173866   0 255   0
0.123602  0.04596  0.17581   0 255   0
 0.124192 0.0466589  0.177998   0 255   0
 0.124843 0.0473739  0.180395   0 255   0
 0.125575 0.0481204  0.182977   0 255   0
 0.126391 0.0489057  0.185731   0 255   0
 0.128223 0.0505567  0.191738   0 255   0
 0.129204 0.0513853  0.194984   0 255   0
  0.13021 0.0521859  0.198378   0 255   0
 0.131235 0.0529305  0.201898   0 255   0
 0.132266 0.0535878  0.205514   0 255   0
 0.133291 0.0541284  0.209195   0 255   0
 0.134297 0.0545282   0.21291   0 255   0
 0.135282 0.0547728  0.216634   0 255   0
 0.137242 0.0548409  0.224048   0 255   0
  0.13826 0.0547533  0.227733   0 255   0
 0.139327 0.0546753  0.231411   0 255   0
0.140456 0.054664 0.235086   0 255   0
 0.141659 0.0547341  0.238752   0 255   0
 0.142946 0.0548531  0.242387   0 255   0
 0.144319 0.0549756  0.245965   0 255   0
 0.145768 0.0550828  0.249455   0 255   0
 0.148796 0.0553367  0.256068   0 255   0
 0.150329 0.0555137  0.259129   0 255   0
  0.15187 0.0556903   0.26198   0 255   0
  0.15343 0.0558241  0.264583   0 255   0
 0.155015 0.0558984  0.266912   0 255   0
 0.156624 0.0559312  0.268952   0 255   0
 0.158242 0.0559473  0.270698   0 255   0
 0.159853 0.0559471  0.272152   0 255   0
0.162992 0.055785 0.274197   0 255   0
 0.164504 0.0556083  0.274795   0 255   0
 0.165969 0.0554308  0.275111   0 255   0
  0.16738 0.0553224  0.275134   0 255   0
 0.168738 0.0553152  0.274847   0 255   0
 0.170049 0.0553902  0.274231   0 255   0
 0.171318 0.0555152  0.273272   0 255   0
 0.172527 0.0556891  0.271967   0 255   0
 0.174603 0.0563422  0.268416   0 255   0
 0.175392 0.0568706   0.26624   0 255   0
 0.175999 0.0574981  0.263848   0 255   0
 0.176443 0.0581662  0.261267   0 255   0
 0.176743 0.0588273  0.258514   0 255   0
 0.176919 0.0594632  0.255588   0 255   0
 0.176976 0.0600825  0.252482   0 255   0
 0.176906 0.0607107  0.249183   0 255   0
 0.176285 0.0621044  0.241986   0 255   0
 0.175705 0.0628878  0.238102   0 255   0
 0.174965 0.0637024   0.23406   0 255   0
 0.174095 0.0645066  0.229894   0 255   0
 0.173125 0.0652527  0.225644   0 255   0
 0.172077 0.0658969  0.221348   0 255   0
 0.170971 0.0664117  0.217038   0 255   0
 0.169837 0.0667954  0.212741   0 255   0
  0.16761 0.0672739  0.204278   0 255   0
 0.166551 0.0674344  0.200145   0 255   0
 0.165514 0.0675694  0.196094   0 255   0
 0.164476 0.0676832  0.192136   0 255   0
 0.163431 0.0677725  0.188284   0 255   0
 0.162396 0.0678337  0.184554   0 255   0
 0.161398 0.0678721  0.180962   0 255   0
 0.160453 0.0679097  0.177523   0 255   0
 0.158707 0.0681175   0.17114   0 255   0
 0.157875 0.0683179  0.168207   0 255   0
 0.157057 0.0685533  0.165446   0 255   0
 0.156257 0.0687885  0.162858   0 255   0
 0.155494 0.0690149  0.160444   0 255   0
 0.154798 0.0692591   0.15821   0 255   0
 0.154194 0.0695578  0.156161   0 255   0
0.153682 0.069923 0.154297   0 255   0
 0.152853 0.0707476  0.151124   0 255   0
 0.152506 0.0711576  0.149815   0 255   0
 0.152218 0.0715783  0.148698   0 255   0
 0.152008 0.0720351  0.147781   0 255   0
 0.151878 0.0725301  0.147067   0 255   0
 0.151812 0.0730305  0.146549   0 255   0
 0.151788 0.0734858  0.146216   0 255   0
 0.151801 0.0738547  0.146056   0 255   0
 0.151994 0.0742903  0.146205   0 255   0
 0.152184 0.0743859  0.146495   0 255   0
 0.152404 0.0744358  0.146915   0 255   0
  0.15262 0.0744656  0.147458   0 255   0
 0.152825 0.0744888  0.148123   0 255   0
 0.153045 0.0745051  0.148912   0 255   0
 0.153312 0.0745072  0.149831   0 255   0
 0.153629 0.0744888  0.150882   0 255   0
 0.154265 0.0743681  0.153366   0 255   0
 0.154524 0.0742515  0.154797   0 255   0
 0.154759 0.0740878  0.156356   0 255   0
 0.155008 0.0738715   0.15805   0 255   0
 0.155295 0.0735963  0.159878   0 255   0
  0.15562 0.0732564  0.161834   0 255   0
 0.155969 0.0728508  0.163911   0 255   0
0.156332 0.072391 0.166104   0 255   0
 0.157114 0.0714013  0.170844   0 255   0
 0.157548 0.0709041  0.173403   0 255   0
 0.158014 0.0704019  0.176095   0 255   0
 0.158511 0.0698823  0.178925   0 255   0
 0.159039 0.0693398  0.181898   0 255   0
 0.159596 0.0687818   0.18502   0 255   0
 0.160182 0.0682245  0.188294   0 255   0
 0.160785 0.0676849  0.191718   0 255   0
 0.161984 0.0666964   0.19897   0 255   0
 0.162578 0.0662486  0.202765   0 255   0
 0.163193 0.0658243  0.206645   0 255   0
 0.163851 0.0654176  0.210586   0 255   0
 0.164545 0.0650262   0.21456   0 255   0
 0.165238 0.0646496  0.218539   0 255   0
 0.165891 0.0642847  0.222497   0 255   0
 0.166495 0.0639242  0.226417   0 255   0
 0.167697 0.0631704   0.23412   0 255   0
 0.168361 0.0627526    0.2379   0 255   0
 0.169055 0.0622913  0.241628   0 255   0
 0.169743 0.0617776    0.2453   0 255   0
 0.170399 0.0612103  0.248912   0 255   0
 0.171025 0.0606027   0.25246   0 255   0
 0.171637 0.0599912  0.255946   0 255   0
 0.172256 0.0594429  0.259374   0 255   0
 0.173556 0.0588502  0.266063   0 255   0
 0.174216 0.0588476  0.269271   0 255   0
 0.174844 0.0589397  0.272296   0 255   0
 0.175417 0.0590147  0.275051   0 255   0
 0.175931 0.0590176  0.277474   0 255   0
 0.176397 0.0589735  0.279544   0 255   0
 0.176823 0.0589273  0.281255   0 255   0
 0.177188 0.0588708  0.282586   0 255   0
 0.177578 0.0583833  0.283947   0 255   0
 0.177552 0.0578326  0.283935   0 255   0
 0.177399 0.0571457  0.283501   0 255   0
0.177155 0.056443 0.282704   0 255   0
 0.176857 0.0558021  0.281591   0 255   0
  0.17652 0.0552222  0.280187   0 255   0
 0.176149 0.0546744  0.278501   0 255   0
0.175736 0.054169 0.276553   0 255   0
 0.174718 0.0535809  0.272034   0 255   0
 0.174074 0.0536205  0.269534   0 255   0
  0.17332 0.0538621  0.266883   0 255   0
 0.172456 0.0542276  0.264065   0 255   0
  0.17149 0.0546323  0.261068   0 255   0
 0.170441 0.0550114  0.257893   0 255   0
 0.169336 0.0553287  0.254553   0 255   0
 0.168213 0.0555808  0.251079   0 255   0
 0.166056 0.0559861  0.243867   0 255   0
 0.165065 0.0561696  0.240161   0 255   0
 0.164131 0.0563115  0.236372   0 255   0
 0.163237 0.0563806  0.232473   0 255   0
 0.162363 0.0563817   0.22846   0 255   0
 0.161492 0.0563638  0.224354   0 255   0
 0.160615 0.0563798  0.220193   0 255   0
  0.15973 0.0564423     0.216   0 255   0
 0.157956 0.0565274  0.207536   0 255   0
 0.157077 0.0564598  0.203276   0 255   0
 0.156202 0.0563235  0.199034   0 255   0
 0.155328 0.0561599  0.194853   0 255   0
 0.154459 0.0560019  0.190761   0 255   0
 0.153605 0.0558556  0.186772   0 255   0
 0.152782 0.0557093  0.182882   0 255   0
 0.151997 0.0555489  0.179082   0 255   0
 0.150543 0.0551461  0.171714   0 255   0
 0.149861 0.0548719  0.168125   0 255   0
 0.149204 0.0545137  0.164594   0 255   0
 0.148576 0.0540518  0.161131   0 255   0
 0.147994 0.0534947  0.157782   0 255   0
  0.14749 0.0528828  0.154618   0 255   0
  0.14709 0.0522708  0.151722   0 255   0
 0.146809 0.0517045  0.149171   0 255   0
  0.14658 0.0507953  0.145305   0 255   0
  0.14662 0.0504703  0.144021   0 255   0
 0.146774 0.0502418  0.143152   0 255   0
 0.147056 0.0501073  0.142667   0 255   0
 0.147469 0.0500402  0.142517   0 255   0
 0.147994 0.0499903  0.142655   0 255   0
 0.148598 0.0499055  0.143044   0 255   0
 0.149248 0.0497606  0.143675   0 255   0
  0.15059 0.0493614  0.145739   0 255   0
0.151242 0.049165 0.147216   0 255   0
 0.151855 0.0489839  0.148992   0 255   0
 0.152423 0.0488077  0.151048   0 255   0
 0.152965 0.0486194  0.153354   0 255   0
 0.153517 0.0484009  0.155878   0 255   0
 0.154116 0.0481346  0.158593   0 255   0
  0.15477 0.0478041  0.161486   0 255   0
  0.15614 0.0468925  0.167815   0 255   0
 0.156816 0.0462813  0.171263   0 255   0
 0.157518 0.0455464  0.174895   0 255   0
 0.158285 0.0446881  0.178693   0 255   0
 0.159131 0.0437399  0.182639   0 255   0
 0.160027 0.0427691  0.186719   0 255   0
 0.160937 0.0418513  0.190913   0 255   0
 0.161853 0.0410359  0.195185   0 255   0
 0.163852 0.0397125  0.203769   0 255   0
  0.16499 0.0391673  0.208004   0 255   0
  0.16619 0.0386971  0.212186   0 255   0
 0.167403 0.0383132  0.216322   0 255   0
   0.1686 0.0380138  0.220412   0 255   0
 0.169789 0.0377749   0.22444   0 255   0
 0.170993 0.0375663  0.228382   0 255   0
 0.172231 0.0373773  0.232218   0 255   0
 0.174793 0.0371267  0.239547   0 255   0
 0.176066 0.0370813  0.243024   0 255   0
 0.177284 0.0370501  0.246353   0 255   0
 0.178421 0.0369889  0.249518   0 255   0
0.179479 0.036879 0.252513   0 255   0
 0.180501 0.0367371  0.255345   0 255   0
0.181529 0.036591 0.258026   0 255   0
 0.182571 0.0364514  0.260561   0 255   0
 0.184518 0.0361283  0.265156   0 255   0
 0.185363 0.0359243  0.267192   0 255   0
 0.186172 0.0357117  0.269045   0 255   0
 0.187009 0.0355084   0.27071   0 255   0
 0.187881 0.0353067  0.272174   0 255   0
 0.188713 0.0350709  0.273419   0 255   0
 0.189399 0.0347595  0.274424   0 255   0
 0.189864 0.0343491  0.275176   0 255   0
 0.190147 0.0332739  0.275905   0 255   0
 0.190049 0.0326728  0.275884   0 255   0
 0.189832 0.0320751  0.275605   0 255   0
 0.189509 0.0315083  0.275064   0 255   0
 0.189091 0.0309928  0.274258   0 255   0
 0.188596 0.0305405   0.27318   0 255   0
 0.188036 0.0301553  0.271824   0 255   0
 0.187404 0.0298379  0.270184   0 255   0
 0.185838 0.0294131  0.266049   0 255   0
  0.18487 0.0293064  0.263554   0 255   0
  0.18379 0.0292632  0.260775   0 255   0
0.182622 0.029272 0.257718   0 255   0
 0.181379 0.0293184  0.254388   0 255   0
0.180054 0.029389   0.2508   0 255   0
 0.178633 0.0294754  0.246972   0 255   0
 0.177109 0.0295764  0.242928   0 255   0
 0.173803 0.0298387  0.234319   0 255   0
0.172067 0.029994 0.229814   0 255   0
   0.1703 0.0301418  0.225211   0 255   0
 0.168512 0.0302637  0.220534   0 255   0
 0.166701 0.0303603  0.215802   0 255   0
0.164861 0.030455 0.211035   0 255   0
 0.162995 0.0305763  0.206249   0 255   0
 0.161128 0.0307328  0.201451   0 255   0
 0.157579 0.0310441  0.191836   0 255   0
 0.155953 0.0311321  0.187021   0 255   0
 0.154406 0.0311651  0.182209   0 255   0
 0.152893 0.0311628   0.17741   0 255   0
0.151379 0.031149 0.172639   0 255   0
 0.14985 0.031144 0.167916   0 255   0
 0.148317 0.0311697  0.163275   0 255   0
 0.146808 0.0312519  0.158755   0 255   0
 0.144025 0.0316684  0.150247   0 255   0
  0.14278 0.0319973  0.146342   0 255   0
 0.141589 0.0323597   0.14272   0 255   0
 0.140412 0.0327026  0.139413   0 255   0
 0.139261 0.0329847   0.13645   0 255   0
